VERSION 0.7
FIELDS x y z rgb
SIZE 4 4 4 4
TYPE F F F F
COUNT 1 1 1 1
WIDTH 879
HEIGHT 1
VIEWPOINT 0.0 0.0 0.0 1.0 0.0 0.0 0.0
POINTS 879
DATA ascii
-1.7242939472 -2.1399257183 -0.0722455457 0.0000000000
-1.6632363796 -2.1333880424 -0.0714927465 0.0000000000
-1.6116704941 -2.1480522156 -0.0924619287 0.0000000000
-1.5630376339 -2.1357686520 -0.0894965678 0.0000000000
-1.5277558565 -2.1241738796 -0.0911569372 0.0000000000
-1.4781134129 -2.1172471046 -0.0782497302 0.0000000000
-1.4293830395 -2.1268806458 -0.0845577121 0.0000000000
-1.3760064840 -2.1369216442 -0.0798203275 0.0000000000
-1.3283584118 -2.1223959923 -0.0802441686 0.0000000000
-1.2807285786 -2.1085333824 -0.0719357431 0.0000000000
-1.2191629410 -2.1075215340 -0.0684729591 0.0000000000
-1.1833117008 -2.1119232178 -0.0740405321 0.0000000000
-1.1216845512 -2.1151783466 -0.0729335472 0.0000000000
-1.0837970972 -2.1072139740 -0.0806264058 0.0000000000
-1.0269433260 -2.1099522114 -0.0753412396 0.0000000000
-0.9753363132 -2.1115205288 -0.0872257352 0.0000000000
-0.9233994484 -2.1163892746 -0.0832265615 0.0000000000
-0.8737050295 -2.1247694492 -0.0744102001 0.0000000000
-0.8396766782 -2.1123731136 -0.0791337416 0.0000000000
-0.7683669329 -2.1182484627 -0.0697343051 0.0000000000
-0.7255942225 -2.1132061481 -0.0670176297 0.0000000000
-0.6805402040 -2.1251304150 -0.0625465959 0.0000000000
-0.6204215288 -2.1116404533 -0.0631347448 0.0000000000
-0.5643322468 -2.1094658375 -0.0561165214 0.0000000000
-0.5448674560 -2.1457874775 -0.0530359000 0.0000000000
-2.4397194386 -2.0538563728 -0.0908776596 0.0000000000
-2.2195861340 -2.0686442852 -0.0659920722 0.0000000000
-2.1754863262 -2.0822143555 -0.0601148233 0.0000000000
-2.1315162182 -2.0889656544 -0.0758950561 0.0000000000
-2.0752737522 -2.0876202583 -0.0732719973 0.0000000000
-2.0215852261 -2.0829081535 -0.0658112764 0.0000000000
-1.9635151625 -2.0861177444 -0.0770800859 0.0000000000
-1.9155453444 -2.0772624016 -0.0786942393 0.0000000000
-1.8674643040 -2.0826194286 -0.0805466846 0.0000000000
-1.8187273741 -2.0862350464 -0.0730723590 0.0000000000
-1.7704985142 -2.0890138149 -0.0715108067 0.0000000000
-1.7182042599 -2.0825891495 -0.0664646626 0.0000000000
-1.6742830276 -2.0781297684 -0.0814235061 0.0000000000
-1.6298155785 -2.0838601589 -0.0737896562 0.0000000000
-1.5845178366 -2.0877749920 -0.0803845525 0.0000000000
-1.5276803970 -2.0925636292 -0.0695560575 0.0000000000
-1.4580578804 -2.0952944756 -0.0732544661 0.0000000000
-1.4306211472 -2.0979959965 -0.0754790530 0.0000000000
-1.3791902065 -2.0954062939 -0.0766216889 0.0000000000
-1.3320014477 -2.0981216431 -0.0747388601 0.0000000000
-1.2813024521 -2.0845897198 -0.0828885585 0.0000000000
-1.2314481735 -2.0963087082 -0.0668937117 0.0000000000
-1.1737767458 -2.0940032005 -0.0637638345 0.0000000000
-1.1362104416 -2.0931329727 -0.0777583867 0.0000000000
-1.0777244568 -2.0974035263 -0.0746632665 0.0000000000
-0.9632459879 -2.0959181786 -0.0653889924 0.0000000000
-0.8869872689 -2.0989875793 -0.0664446205 0.0000000000
-0.7980605364 -2.0909802914 -0.0753271431 0.0000000000
-0.6670317054 -2.0997817516 -0.0652410239 0.0000000000
-0.5832052231 -2.0901000500 -0.0667753071 0.0000000000
-2.6688303947 -2.0127880573 -0.0695901439 0.0000000000
-2.6163191795 -2.0124094486 -0.0675219521 0.0000000000
-2.5726754665 -2.0306663513 -0.0652849004 0.0000000000
-2.5275428295 -2.0324323177 -0.0527334139 0.0000000000
-2.4766004086 -2.0292460918 -0.0509347841 0.0000000000
-3.7218058109 -1.9861551523 -0.0519904718 0.0000000000
-3.6702439785 -1.9930975437 -0.0652745590 0.0000000000
-3.5839433670 -1.9792811871 -0.0632235929 0.0000000000
-2.6576695442 -1.9646649361 -0.0704911575 0.0000000000
-2.6081576347 -1.9629071951 -0.0662302524 0.0000000000
-2.5557169914 -1.9652658701 -0.0561092943 0.0000000000
-2.5095462799 -1.9759695530 -0.0519883931 0.0000000000
-2.4736869335 -1.9649319649 -0.0853240490 0.0000000000
-2.4187979698 -1.9725672007 -0.0834262744 0.0000000000
-2.3731551170 -1.9665027857 -0.0769828930 0.0000000000
-3.5181641579 -1.9183578491 -0.0741257221 0.0000000000
-3.4585027695 -1.9353349209 -0.0716117173 0.0000000000
-3.4357686043 -1.9193303585 -0.0872209817 0.0000000000
-2.9652304649 -1.9239461422 -0.0654421970 0.0000000000
-2.9213600159 -1.9169707298 -0.0870978385 0.0000000000
-2.6570434570 -1.9248526096 -0.0716249272 0.0000000000
-2.6109578609 -1.9189685583 -0.0736707523 0.0000000000
-2.5989470482 -1.9436569214 -0.0624473579 0.0000000000
-0.3610689342 -1.9289056063 -0.0573815182 0.0000000000
-0.3303305507 -1.9238809347 -0.0598399937 0.0000000000
-3.4677236080 -1.8889905214 -0.0653260499 0.0000000000
-3.4388003349 -1.8865100145 -0.0896997824 0.0000000000
-3.3630561829 -1.8769737482 -0.0702880770 0.0000000000
-3.3249092102 -1.8851735592 -0.0908460170 0.0000000000
-3.2744650841 -1.8765230179 -0.0758432150 0.0000000000
-3.2222967148 -1.8650987148 -0.0690647513 0.0000000000
-3.0763216019 -1.8722841740 -0.0645121560 0.0000000000
-3.0404062271 -1.8678636551 -0.0565019622 0.0000000000
-2.9949903488 -1.8628836870 -0.0689124316 0.0000000000
-2.9287981987 -1.8657535315 -0.0748027936 0.0000000000
-2.8787553310 -1.8677077293 -0.0782714486 0.0000000000
-2.6155502796 -1.8762102127 -0.0756849200 0.0000000000
-2.5655851364 -1.8677372932 -0.0586450845 0.0000000000
-0.3620840609 -1.8883281946 -0.0703125224 0.0000000000
-0.3262684345 -1.8871048689 -0.0669050440 0.0000000000
-3.3885688782 -1.8176122904 -0.0732616633 0.0000000000
-3.3368268013 -1.8227065802 -0.0988458246 0.0000000000
-3.1777200699 -1.8442544937 -0.0884171948 0.0000000000
-3.1188666821 -1.8392963409 -0.0772734880 0.0000000000
-3.0831968784 -1.8438097239 -0.0707947463 0.0000000000
-3.0385575294 -1.8371369839 -0.0739688128 0.0000000000
-2.9381294250 -1.8225566149 -0.0943856686 0.0000000000
-3.3125138283 -1.7771654129 -0.0901906639 0.0000000000
-2.4804327488 -1.7595808506 -0.0589040145 0.0000000000
-3.8408653736 -1.7074034214 -0.0673797131 0.0000000000
-3.2959539890 -1.7371972799 -0.0904913098 0.0000000000
-2.4629278183 -1.7014650106 -0.0803013965 0.0000000000
-2.4226300716 -1.7311360836 -0.0733629018 0.0000000000
-3.8126811981 -1.6724927425 -0.0734630302 0.0000000000
-3.7275884151 -1.6626938581 -0.0602152199 0.0000000000
-3.6863059998 -1.6601930857 -0.0616709813 0.0000000000
-2.4764659405 -1.6657984257 -0.0688400939 0.0000000000
-2.4269740582 -1.6786332130 -0.0791488662 0.0000000000
-3.8390960693 -1.6482206583 -0.0710453987 0.0000000000
-3.7791423798 -1.6248308420 -0.0751142278 0.0000000000
-3.9373302460 -1.5751838684 -0.0937977433 0.0000000000
-3.8680112362 -1.5757884979 -0.0631373525 0.0000000000
-3.8268802166 -1.5770641565 -0.0697463825 0.0000000000
-3.7972471714 -1.5958975554 -0.0665506646 0.0000000000
-4.2584223747 -1.5086426735 -0.0565462708 0.0000000000
-4.2098546028 -1.5223020315 -0.0715142488 0.0000000000
-4.1646065712 -1.5357992649 -0.0714310408 0.0000000000
-4.0731897354 -1.5328453779 -0.0996447206 0.0000000000
-4.0370512009 -1.5175110102 -0.0561670065 0.0000000000
-3.9752662182 -1.5305614471 -0.0932955593 0.0000000000
-3.9196276665 -1.5357650518 -0.0761651695 0.0000000000
-1.6197370291 -1.5093415976 -0.0857651532 0.0000000000
-4.3539981842 -1.4799022675 -0.0563610196 0.0000000000
-4.3057079315 -1.4944611788 -0.0564550757 0.0000000000
-4.2070178986 -1.4920321703 -0.0859706998 0.0000000000
-4.1800684929 -1.4606302977 -0.0586963445 0.0000000000
-4.1105723381 -1.4751603603 -0.0772421360 0.0000000000
-4.0831346512 -1.4750320911 -0.0776711628 0.0000000000
-3.9924046993 -1.4820138216 -0.0890268832 0.0000000000
-2.3652694225 -1.4524017572 -0.0883931071 0.0000000000
-2.3333168030 -1.4538909197 -0.0900727063 0.0000000000
-1.6816438437 -1.4700956345 -0.0818325281 0.0000000000
-1.6249920130 -1.4771738052 -0.0763509199 0.0000000000
-1.2362853289 -1.4869362116 -0.0963032171 0.0000000000
-1.1809641123 -1.4819504023 -0.0860207155 0.0000000000
-1.1264281273 -1.4767801762 -0.0941411257 0.0000000000
-0.6662724614 -1.4520056248 -0.0838876143 0.0000000000
-0.6168529987 -1.4607863426 -0.0734345093 0.0000000000
-0.5978693962 -1.4598819017 -0.0757437944 0.0000000000
-0.3135719299 -1.4763994217 -0.0581689626 0.0000000000
-4.4027161598 -1.4333933592 -0.0558201075 0.0000000000
-4.3534297943 -1.4487259388 -0.0559228659 0.0000000000
-4.2031736374 -1.4249264002 -0.0501790196 0.0000000000
-4.0905737877 -1.4449450970 -0.0945330784 0.0000000000
-2.3567395210 -1.4336004257 -0.0916588157 0.0000000000
-2.3416781425 -1.4249250889 -0.0812359303 0.0000000000
-1.6745746136 -1.4225504398 -0.0866587311 0.0000000000
-1.6349263191 -1.4358775616 -0.0627133250 0.0000000000
-1.1252399683 -1.4429870844 -0.0992618203 0.0000000000
-1.0817492008 -1.4337956905 -0.0879287720 0.0000000000
-1.0064264536 -1.4173450470 -0.0990634784 0.0000000000
-0.9681003690 -1.4413348436 -0.0967156142 0.0000000000
-0.9134114981 -1.4203410149 -0.0944148302 0.0000000000
-0.8805063367 -1.4349038601 -0.0885036811 0.0000000000
-0.7780317068 -1.4057700634 -0.0955199748 0.0000000000
-0.7210212350 -1.4021875858 -0.0950382799 0.0000000000
-0.6384147406 -1.4479763508 -0.0771852583 0.0000000000
-0.5825996995 -1.4350892305 -0.0727388933 0.0000000000
-0.5245342255 -1.4216083288 -0.0727722347 0.0000000000
-0.4659763277 -1.4137173891 -0.0665818080 0.0000000000
-0.4225211442 -1.4035372734 -0.0659210309 0.0000000000
-0.3253331184 -1.4260462523 -0.0568334833 0.0000000000
-4.3019785881 -1.3589645624 -0.0548487455 0.0000000000
-4.2276449203 -1.3844624758 -0.0523291975 0.0000000000
-4.1589355469 -1.3951895237 -0.0814916342 0.0000000000
-0.8614715338 -1.3956055641 -0.0913604796 0.0000000000
-0.8257083893 -1.3959228992 -0.0933543369 0.0000000000
-0.7782264948 -1.3919603825 -0.0907835737 0.0000000000
-0.7211527824 -1.3821449280 -0.0899355039 0.0000000000
-0.6800194979 -1.3810459375 -0.0889386386 0.0000000000
-0.6294223666 -1.3811907768 -0.0869309902 0.0000000000
-0.5750302672 -1.3677139282 -0.0809736475 0.0000000000
-0.5261119604 -1.3633718491 -0.0861228481 0.0000000000
-0.4846368730 -1.3550701141 -0.0836327896 0.0000000000
-0.4365182519 -1.3761022091 -0.0940117091 0.0000000000
-0.3677999377 -1.3774349689 -0.0738468766 0.0000000000
-0.3341988027 -1.3769098520 -0.0784740970 0.0000000000
-0.2765618563 -1.3661551476 -0.0844182670 0.0000000000
-4.3695492744 -1.3465962410 -0.0566939265 0.0000000000
-0.4839486480 -1.3449422121 -0.0737215877 0.0000000000
-0.4195238650 -1.3385467529 -0.0966062248 0.0000000000
-0.3738754392 -1.3287795782 -0.0950172618 0.0000000000
-0.3132295907 -1.3266674280 -0.0904780403 0.0000000000
-0.2648637891 -1.3288220167 -0.0842464194 0.0000000000
-0.2099573612 -1.3294973373 -0.0688141882 0.0000000000
-0.1615198851 -1.3319908381 -0.0749668702 0.0000000000
-0.1118393168 -1.3293914795 -0.0706127807 0.0000000000
-0.0652897656 -1.3280198574 -0.0681989193 0.0000000000
-0.0214135423 -1.3250250816 -0.0716836303 0.0000000000
0.0257917028 -1.3191583157 -0.0693986788 0.0000000000
0.0833925903 -1.3194985390 -0.0832789168 0.0000000000
0.1273954958 -1.3112041950 -0.0695883334 0.0000000000
0.3531531096 -1.3226143122 -0.0512315333 0.0000000000
-2.3610548973 -1.2500667572 -0.0508614406 0.0000000000
0.0307885874 -1.2961299419 -0.0620311573 0.0000000000
0.0979054943 -1.2960951328 -0.0562253855 0.0000000000
0.1465043724 -1.2922567129 -0.0523420647 0.0000000000
0.1955294311 -1.2841402292 -0.0884563774 0.0000000000
0.2338104248 -1.2754387856 -0.0827769190 0.0000000000
0.2879060209 -1.2841359377 -0.0666215718 0.0000000000
-2.3607847691 -1.2214899063 -0.0887054503 0.0000000000
-2.3348340988 -1.2163020372 -0.0710590258 0.0000000000
-2.2530343533 -1.2159296274 -0.0523343571 0.0000000000
-2.3407468796 -1.1887916327 -0.0939108282 0.0000000000
-3.7181167603 -1.1115479469 -0.0759331882 0.0000000000
-3.6391110420 -1.0734771490 -0.0577749312 0.0000000000
-3.5751361847 -1.0692937374 -0.0604426302 0.0000000000
-3.5651030540 -1.0460580587 -0.0531671792 0.0000000000
-3.5284314156 -1.0362856388 -0.0783604234 0.0000000000
-1.8175710440 -0.9077196717 -0.0946681648 0.0000000000
-1.9151749611 -0.6058541536 -0.0970213413 0.0000000000
-0.0738599375 -0.6306854486 -0.0628868490 0.0000000000
-0.0481914878 -0.6310073733 -0.0691269785 0.0000000000
-2.0085840225 -0.5648063421 -0.0652493984 0.0000000000
-1.9904408455 -0.5560340285 -0.0682230890 0.0000000000
-1.9177725315 -0.5734268427 -0.0852057338 0.0000000000
-1.8720927238 -0.5542488098 -0.0809669420 0.0000000000
-0.1168491095 -0.5809060931 -0.0915338099 0.0000000000
-0.0784005672 -0.5813922286 -0.0883136988 0.0000000000
-0.0363992751 -0.5936786532 -0.0866525844 0.0000000000
-1.9737111330 -0.5231493115 -0.0581310987 0.0000000000
-1.9182884693 -0.5260328054 -0.0780298188 0.0000000000
-1.8788758516 -0.5300025940 -0.0789421946 0.0000000000
-1.8414202929 -0.5304449201 -0.0976955593 0.0000000000
-1.9221253395 -0.4770646095 -0.0570040047 0.0000000000
-1.8763412237 -0.4711303115 -0.0795219913 0.0000000000
-1.8379572630 -0.4532905817 -0.0881229639 0.0000000000
-1.8709510565 -0.4307174385 -0.0751154572 0.0000000000
-1.8470276594 -0.4065724015 -0.0787411034 0.0000000000
-1.8774627447 -0.3821799755 -0.0744874254 0.0000000000
-1.8404376507 -0.3968601227 -0.0711667761 0.0000000000
-1.8754240274 -0.3252892494 -0.0807877928 0.0000000000
-1.8367258310 -0.3492851853 -0.0736247897 0.0000000000
-1.8747408390 -0.2665960789 -0.0729370713 0.0000000000
-1.8428316116 -0.2969365716 -0.0742471516 0.0000000000
-1.9108916521 -0.2305725217 -0.0904309452 0.0000000000
-1.8693035841 -0.2260141522 -0.0713067055 0.0000000000
-1.8793940544 -0.1998369247 -0.0653837770 0.0000000000
-1.8306425810 -0.1616439521 -0.0552996099 0.0000000000
-1.7913814783 -0.1563600004 -0.0734522268 0.0000000000
-1.8162561655 -0.1357696652 -0.0813164040 0.0000000000
-1.7885777950 -0.1180948094 -0.0774597079 0.0000000000
-1.8199459314 -0.0749415755 -0.0788800344 0.0000000000
-1.7912894487 -0.0938959643 -0.0686150715 0.0000000000
-4.9745550156 0.0418336689 -0.0738994181 0.0000000000
-5.0174593925 0.0839295238 -0.0721616000 0.0000000000
-5.0698847771 0.1294528842 -0.0901117325 0.0000000000
-4.9298868179 0.1040334851 -0.0656457171 0.0000000000
-4.8745470047 0.1333791763 -0.0996823534 0.0000000000
-4.8187236786 0.1303338259 -0.0658409223 0.0000000000
-5.0753660202 0.1684891582 -0.0889250487 0.0000000000
-5.0114564896 0.1840638071 -0.0685385764 0.0000000000
-4.8244018555 0.1619403511 -0.0999827608 0.0000000000
-4.7705488205 0.1586108655 -0.0665683970 0.0000000000
-5.0682048798 0.2215808332 -0.0888168812 0.0000000000
-5.0010008812 0.2367729694 -0.0662960708 0.0000000000
-4.9040613174 0.2133501917 -0.0696218237 0.0000000000
-5.0675325394 0.2584320307 -0.0882990360 0.0000000000
-4.9278278351 0.2729021907 -0.0699882656 0.0000000000
-4.8656244278 0.2724752426 -0.0551464185 0.0000000000
-5.0013294220 0.3309005499 -0.0748046860 0.0000000000
-4.9004411697 0.3830368519 -0.0596099719 0.0000000000
-2.5107994080 0.3899698555 -0.0972094834 0.0000000000
-2.4681229591 0.3783746958 -0.0921434909 0.0000000000
-2.4187457561 0.3625894785 -0.0953484252 0.0000000000
0.1765568554 0.3912734985 -0.0946064591 0.0000000000
0.2484547794 0.3873798251 -0.0913907886 0.0000000000
-5.1871080399 0.4287443757 -0.0803320110 0.0000000000
-5.0641741753 0.4426880181 -0.0857094526 0.0000000000
-5.0323910713 0.4016222954 -0.0779056251 0.0000000000
-4.9626655579 0.4300399423 -0.0580735505 0.0000000000
-4.9103889465 0.4146256447 -0.0608852133 0.0000000000
-4.8589668274 0.4393828511 -0.0779034123 0.0000000000
-2.5183768272 0.4234502316 -0.0899930000 0.0000000000
-2.4646198750 0.4212796688 -0.0889049545 0.0000000000
-2.4281122684 0.4339327216 -0.0893365145 0.0000000000
-2.3837881088 0.4481854439 -0.0801939964 0.0000000000
-5.1570363045 0.4694827795 -0.0938315392 0.0000000000
-5.1006026268 0.4642103314 -0.0607685484 0.0000000000
-4.9772224426 0.4682863355 -0.0615037829 0.0000000000
-4.8708992004 0.4705706835 -0.0629335269 0.0000000000
-4.8202362061 0.4942924976 -0.0797136649 0.0000000000
-2.5508003235 0.4752175808 -0.0630456805 0.0000000000
-2.5096940994 0.4534286261 -0.0663706660 0.0000000000
-2.4816045761 0.4755405188 -0.0695154071 0.0000000000
-2.4191410542 0.4685571194 -0.0791000351 0.0000000000
-2.3641591072 0.4737611413 -0.0730791092 0.0000000000
-2.3321874142 0.4712723494 -0.0694738999 0.0000000000
-5.1295280457 0.5107935667 -0.0909693241 0.0000000000
-5.0755887032 0.5169258118 -0.0921479762 0.0000000000
-5.0072464943 0.5439788699 -0.0539383590 0.0000000000
-4.9977560043 0.5259046555 -0.0656628609 0.0000000000
-4.8327083588 0.5405191779 -0.0976087078 0.0000000000
-2.3672046661 0.5242217779 -0.0607455671 0.0000000000
-2.3121471405 0.5237421393 -0.0580923706 0.0000000000
-2.2773377895 0.5328866839 -0.0809923112 0.0000000000
-5.1609930992 0.5749201775 -0.0546956100 0.0000000000
-5.0646553040 0.5773715973 -0.0817025676 0.0000000000
-4.9003725052 0.5641613007 -0.0667119846 0.0000000000
-4.8535108566 0.5867110491 -0.0513872728 0.0000000000
-4.8472633362 0.5867369771 -0.0994745716 0.0000000000
-2.3561301231 0.5859270692 -0.0604305603 0.0000000000
-2.3216214180 0.5720211864 -0.0672639683 0.0000000000
-2.2753152847 0.5643945932 -0.0761096179 0.0000000000
-5.1969103813 0.6253432631 -0.0520298518 0.0000000000
-5.1279373169 0.6156015396 -0.0849414468 0.0000000000
-5.0608148575 0.6269440651 -0.0831198692 0.0000000000
-4.9933896065 0.6034488082 -0.0633486807 0.0000000000
-4.8644795418 0.6303728819 -0.0745216832 0.0000000000
-2.3733730316 0.6260446310 -0.0532913804 0.0000000000
-2.3333463669 0.6239705086 -0.0749206468 0.0000000000
-5.1780958176 0.6535996795 -0.0500721969 0.0000000000
-5.1419816017 0.6942184567 -0.0974963903 0.0000000000
-4.9837012291 0.6636189818 -0.0716188177 0.0000000000
-4.8256940842 0.6697236896 -0.0547330603 0.0000000000
-2.4108514786 0.6945738792 -0.0647518635 0.0000000000
-2.3729012012 0.6746996045 -0.0657186806 0.0000000000
-2.3445005417 0.6734346747 -0.0833630860 0.0000000000
-5.1137595177 0.7366035581 -0.0945598483 0.0000000000
-5.0622715950 0.7004415989 -0.0638685822 0.0000000000
-4.9286394119 0.7146096230 -0.0623716116 0.0000000000
-4.8598046303 0.7041769028 -0.0968665481 0.0000000000
-4.8392143250 0.7191997170 -0.0725665316 0.0000000000
-2.4111704826 0.7470146418 -0.0621924736 0.0000000000
-2.3723924160 0.7187530398 -0.0727168918 0.0000000000
-2.3430352211 0.7134602070 -0.0861461461 0.0000000000
-5.2269825935 0.7869138122 -0.0769270062 0.0000000000
-4.9927868843 0.7984610796 -0.0618321300 0.0000000000
-4.8077716827 0.7807991505 -0.0592115745 0.0000000000
-2.3762514591 0.7524990439 -0.0861263871 0.0000000000
0.9866773486 0.7891549468 -0.0729559660 0.0000000000
1.0242125988 0.7603765130 -0.0895873010 0.0000000000
-5.1421232224 0.8046231270 -0.0743784904 0.0000000000
-5.0546550751 0.8114049435 -0.0987455845 0.0000000000
-5.0182638168 0.8059265614 -0.0798526108 0.0000000000
-4.9921245575 0.8348017931 -0.0613214374 0.0000000000
-4.7646608353 0.8149143457 -0.0760455057 0.0000000000
-4.7219567299 0.8383945823 -0.0717129931 0.0000000000
0.9936382771 0.8211002350 -0.0599894747 0.0000000000
-5.0876088142 0.8910896182 -0.0514241494 0.0000000000
-5.0243225098 0.8551656008 -0.0737446398 0.0000000000
-4.9231376648 0.8671534061 -0.0779488385 0.0000000000
-4.8619565964 0.8806128502 -0.0594192147 0.0000000000
-4.7356138229 0.8775546551 -0.0631067976 0.0000000000
-4.6783676147 0.8661566973 -0.0928476080 0.0000000000
-5.0536904335 0.9328328371 -0.0824593902 0.0000000000
-4.9967675209 0.9143019319 -0.0752417147 0.0000000000
1.0382401943 0.9105719924 -0.0692191422 0.0000000000
-5.0224366188 0.9751721621 -0.0964897871 0.0000000000
-4.9658699036 0.9632425308 -0.0621112622 0.0000000000
-4.8600220680 0.9867104292 -0.0579280257 0.0000000000
-2.7816073895 0.9703159332 -0.0872849524 0.0000000000
-5.1285991669 1.0480587482 -0.0601997413 0.0000000000
-5.0460176468 1.0198791027 -0.0720057189 0.0000000000
-4.9179630280 1.0017743111 -0.0937779546 0.0000000000
-4.8566899300 1.0222730637 -0.0749121010 0.0000000000
-2.7694146633 1.0028121471 -0.0808783472 0.0000000000
-5.1050887108 1.0915615559 -0.0702669919 0.0000000000
0.7410572171 1.0884690285 -0.0746710151 0.0000000000
0.7751746178 1.0723553896 -0.0691790655 0.0000000000
0.8270987272 1.0913327932 -0.0600392222 0.0000000000
0.8630455732 1.0832172632 -0.0557407513 0.0000000000
1.0566365719 1.0754518509 -0.0562281013 0.0000000000
0.7506261468 1.1040259600 -0.0531835184 0.0000000000
-3.9876928329 1.3520050049 -0.0847683251 0.0000000000
-3.9362249374 1.3649736643 -0.0975461304 0.0000000000
-3.7749090195 1.5317320824 -0.0668304563 0.0000000000
-3.9493050575 1.5584526062 -0.0611487925 0.0000000000
-3.8601016998 1.5507895947 -0.0591891110 0.0000000000
-3.8235721588 1.5777128935 -0.0838270932 0.0000000000
-3.7628016472 1.5995373726 -0.0549074709 0.0000000000
-0.9028049707 1.5961209536 -0.0741691291 0.0000000000
-0.8576030135 1.5959632397 -0.0965020657 0.0000000000
-0.7737541199 1.5974918604 -0.0819997415 0.0000000000
-0.7211607099 1.5933567286 -0.0795715451 0.0000000000
-3.9902319908 1.6212370396 -0.0786768347 0.0000000000
-3.9377162457 1.6406191587 -0.0649439096 0.0000000000
-3.8757567406 1.6457085609 -0.0777164698 0.0000000000
-3.8095932007 1.6180815697 -0.0799120814 0.0000000000
-3.7732295990 1.6317631006 -0.0736657754 0.0000000000
-3.7137236595 1.6094352007 -0.0814871490 0.0000000000
-2.6378452778 1.6188459396 -0.0645806715 0.0000000000
-0.9777230620 1.6129968166 -0.0763400942 0.0000000000
-0.9349167943 1.6179260015 -0.0730006471 0.0000000000
-0.8700664043 1.6150478125 -0.0791062042 0.0000000000
-0.8218991160 1.6177725792 -0.0941787362 0.0000000000
-0.7733979821 1.6055907011 -0.0698603317 0.0000000000
-0.7100973129 1.6136378050 -0.0727434456 0.0000000000
-0.6902677417 1.6120496988 -0.0547751635 0.0000000000
-0.6433016062 1.6454770565 -0.0827946365 0.0000000000
-3.9768521786 1.6593853235 -0.0957397223 0.0000000000
-3.8151636124 1.6506613493 -0.0901976228 0.0000000000
-3.7705957890 1.6546970606 -0.0785944760 0.0000000000
-3.7417936325 1.6777126789 -0.0780840963 0.0000000000
-2.6590948105 1.6851667166 -0.0612349547 0.0000000000
-2.6312916279 1.6709887981 -0.0686029643 0.0000000000
-0.6351611614 1.6699097157 -0.0862354338 0.0000000000
-4.5024747849 1.7270404100 -0.0687550604 0.0000000000
-4.4376182556 1.7180948257 -0.0756712556 0.0000000000
-4.3860931396 1.7290735245 -0.0703721493 0.0000000000
-3.7680630684 1.7147759199 -0.0792254061 0.0000000000
-3.7354693413 1.7126339674 -0.0784693658 0.0000000000
-0.8287106752 1.7126724720 -0.0569880754 0.0000000000
-0.7110169530 1.7021706104 -0.0718449503 0.0000000000
-0.6999816895 1.7370842695 -0.0840880126 0.0000000000
-0.6252479553 1.7381577492 -0.0847214609 0.0000000000
-4.5568594933 1.7700120211 -0.0947592854 0.0000000000
-4.5375475883 1.7990156412 -0.0927499533 0.0000000000
-3.8431906700 1.7616227865 -0.0924761295 0.0000000000
-3.7515826225 1.7501215935 -0.0686469674 0.0000000000
-0.6950740218 1.7813452482 -0.0814158916 0.0000000000
-4.5793733597 1.8540003300 -0.0740476251 0.0000000000
1.3169926405 1.8923858404 -0.0943608880 0.0000000000
1.3250741959 1.9320836067 -0.0915227979 0.0000000000
-0.6520754695 1.9868198633 -0.0865700915 0.0000000000
1.3259178400 1.9648536444 -0.0790355802 0.0000000000
-0.6665256023 2.0337285995 -0.0741906241 0.0000000000
-0.6456644535 2.0210890770 -0.0865180120 0.0000000000
-0.2787446976 2.0461220741 -0.0586616956 0.0000000000
-0.1890297383 2.0097556114 -0.0851381272 0.0000000000
-0.1148545891 2.0488932133 -0.0909720659 0.0000000000
1.3334058523 2.0265078545 -0.0812574774 0.0000000000
1.3708219528 2.0428524017 -0.0601731613 0.0000000000
1.4085865021 2.0495131016 -0.0527026951 0.0000000000
-1.4688478708 2.0930166245 -0.0622963458 0.0000000000
-1.3673269749 2.0949478149 -0.0650084466 0.0000000000
-1.3206057549 2.0898993015 -0.0703240335 0.0000000000
-1.2833991051 2.0919890404 -0.0744886026 0.0000000000
-1.2476980686 2.0785038471 -0.0654878616 0.0000000000
-0.6676012874 2.0718123913 -0.0577298254 0.0000000000
-0.6409543157 2.0720865726 -0.0691015497 0.0000000000
-0.3212266266 2.0751209259 -0.0627422705 0.0000000000
-0.2785633206 2.0830769539 -0.0591680594 0.0000000000
-0.2261434793 2.0671708584 -0.0851600990 0.0000000000
-0.1656470597 2.0773572922 -0.0828502178 0.0000000000
-0.1410529017 2.0839145184 -0.0768916160 0.0000000000
-0.0786370039 2.0559475422 -0.0889830217 0.0000000000
-0.0156196654 2.0574226379 -0.0885182247 0.0000000000
0.0195490271 2.0716705322 -0.0761868805 0.0000000000
1.3273048401 2.0868835449 -0.0753433034 0.0000000000
1.3682923317 2.0899853706 -0.0568006746 0.0000000000
-2.8035583496 2.1473023891 -0.0884814560 0.0000000000
-2.7663078308 2.1410086155 -0.0868367553 0.0000000000
-1.5156751871 2.1085691452 -0.0680333823 0.0000000000
-1.4843758345 2.1283702850 -0.0824287385 0.0000000000
-1.4345935583 2.1117246151 -0.0712072477 0.0000000000
-1.3209147453 2.1078052521 -0.0775600821 0.0000000000
-1.2779357433 2.1136982441 -0.0948277563 0.0000000000
-0.6254094839 2.1208713055 -0.0679861233 0.0000000000
-0.3101487160 2.1006407738 -0.0500278734 0.0000000000
0.0296342075 2.1093661785 -0.0884480923 0.0000000000
1.3410441875 2.1391901970 -0.0779741704 0.0000000000
1.3536638021 2.1221396923 -0.0780717432 0.0000000000
-2.8322443962 2.1665639877 -0.0553125143 0.0000000000
-2.7174153328 2.1913754940 -0.0702394098 0.0000000000
-0.6272507906 2.1638116837 -0.0559596904 0.0000000000
1.2975001335 2.1807508469 -0.0715840310 0.0000000000
1.3182964325 2.1612451077 -0.0749552846 0.0000000000
1.3604640961 2.1991276741 -0.0685948804 0.0000000000
-3.9564666748 2.2284495831 -0.0670372546 0.0000000000
-2.9737339020 2.2205963135 -0.0710138530 0.0000000000
-2.9078421593 2.2186944485 -0.0831198692 0.0000000000
-2.8380343914 2.2236440182 -0.0858528540 0.0000000000
-2.7783796787 2.2258522511 -0.0693699419 0.0000000000
-2.7270715237 2.2265744209 -0.0751567632 0.0000000000
-2.6797657013 2.2156679630 -0.0850597993 0.0000000000
-2.6225147247 2.2202589512 -0.0752376616 0.0000000000
-2.5808699131 2.2349550724 -0.0551406778 0.0000000000
-0.6590914726 2.2262487411 -0.0821187347 0.0000000000
-0.6353784204 2.2194354534 -0.0719742924 0.0000000000
-0.5944600105 2.2132768631 -0.0685543567 0.0000000000
1.3323020935 2.2332630157 -0.0639947951 0.0000000000
-4.7857046127 2.2841529846 -0.0734702647 0.0000000000
-4.6495757103 2.2709863186 -0.0717208385 0.0000000000
-4.1175274849 2.2899196148 -0.0814622343 0.0000000000
-4.0535292625 2.2530181408 -0.0693067014 0.0000000000
-3.9953002930 2.2870304585 -0.0661855638 0.0000000000
-3.0511434078 2.2835142612 -0.0920716822 0.0000000000
-3.0217752457 2.2682828903 -0.0749188662 0.0000000000
-2.9978251457 2.2802660465 -0.0590344109 0.0000000000
-2.9240186214 2.2546217442 -0.0701821148 0.0000000000
-2.6027462482 2.2946436405 -0.0883656740 0.0000000000
-2.5756819248 2.2973392010 -0.0524924137 0.0000000000
-0.6725680828 2.2798607349 -0.0989657789 0.0000000000
-0.6260080934 2.2651867867 -0.0875878334 0.0000000000
-0.5740299225 2.2703421116 -0.0647802502 0.0000000000
-0.5404762030 2.2754650116 -0.0785018057 0.0000000000
0.6386259198 2.2975568771 -0.0945369452 0.0000000000
0.6822437644 2.2931761742 -0.0605036914 0.0000000000
0.7286090255 2.2861013412 -0.0915812701 0.0000000000
1.3377783298 2.2709770203 -0.0669969618 0.0000000000
-4.8301463127 2.3310070038 -0.0740026832 0.0000000000
-4.7816481590 2.3206391335 -0.0535004437 0.0000000000
-4.7109818459 2.3234703541 -0.0516137779 0.0000000000
-4.6515383720 2.3047924042 -0.0544396639 0.0000000000
-4.5348091125 2.3105068207 -0.0692032576 0.0000000000
-4.3166785240 2.3416333199 -0.0569813587 0.0000000000
-4.2636065483 2.3116295338 -0.0875225365 0.0000000000
-4.1798720360 2.3180086613 -0.0654540583 0.0000000000
-4.0912327766 2.3328139782 -0.0767804608 0.0000000000
-3.9891653061 2.3179583549 -0.0648697913 0.0000000000
-3.9382810593 2.3201358318 -0.0631365478 0.0000000000
-3.8772971630 2.3322169781 -0.0663218200 0.0000000000
-3.8257460594 2.3230452538 -0.0617126226 0.0000000000
-3.7869720459 2.3376162052 -0.0613260008 0.0000000000
-3.7232022285 2.3145546913 -0.0710937977 0.0000000000
-3.6785233021 2.3167307377 -0.0694001317 0.0000000000
-3.0231966972 2.3039875031 -0.0865421295 0.0000000000
-2.5928270817 2.3262331486 -0.0745234787 0.0000000000
-0.5532448292 2.3248014450 -0.0643182099 0.0000000000
-0.5209342837 2.3310530186 -0.0721408501 0.0000000000
0.5374306440 2.3310942650 -0.0986831486 0.0000000000
0.7211806178 2.3189296722 -0.0700522959 0.0000000000
0.7593228817 2.3268084526 -0.0725194737 0.0000000000
0.8025249243 2.3182413578 -0.0937014520 0.0000000000
0.9347655177 2.3303952217 -0.0916893855 0.0000000000
1.3192594051 2.3332085609 -0.0571860708 0.0000000000
-4.6281404495 2.3617012501 -0.0840685666 0.0000000000
-4.5901508331 2.3750231266 -0.0692688227 0.0000000000
-4.3716025352 2.3829982281 -0.0812266171 0.0000000000
-4.0262365341 2.3786177635 -0.0679309219 0.0000000000
-3.9741864204 2.3799388409 -0.0777824223 0.0000000000
-3.9208021164 2.3815054893 -0.0912566483 0.0000000000
-3.8579509258 2.3939077854 -0.0584342517 0.0000000000
-3.8230566978 2.3618111610 -0.0910750926 0.0000000000
-3.7501626015 2.3607447147 -0.0559661426 0.0000000000
-3.7362167835 2.3730573654 -0.0869543850 0.0000000000
-2.5744619370 2.3789439201 -0.0774028152 0.0000000000
-0.5124759674 2.3861958981 -0.0753113180 0.0000000000
0.0696542934 2.3701047897 -0.0744596496 0.0000000000
0.1129066870 2.3671329021 -0.0696007535 0.0000000000
0.7212636471 2.3769848347 -0.0850488245 0.0000000000
0.7882814407 2.3663544655 -0.0825526342 0.0000000000
0.8116379380 2.3544883728 -0.0832977593 0.0000000000
0.9492005706 2.3648684025 -0.0734674186 0.0000000000
-4.6464772224 2.4409606457 -0.0693319440 0.0000000000
-4.5298743248 2.4432275295 -0.0837185979 0.0000000000
-4.2059149742 2.4065093994 -0.0782664120 0.0000000000
-4.1792845726 2.4232599735 -0.0757878125 0.0000000000
-4.1057147980 2.4109461308 -0.0728273094 0.0000000000
-4.0697202682 2.4084012508 -0.0962608755 0.0000000000
-4.0443181992 2.4372699261 -0.0810645968 0.0000000000
-3.5482797623 2.4190912247 -0.0751062930 0.0000000000
-3.4172973633 2.4491932392 -0.0962167978 0.0000000000
-3.3843989372 2.4358520508 -0.0747651309 0.0000000000
-3.3105797768 2.4239315987 -0.0787314475 0.0000000000
-3.2880172729 2.4369242191 -0.0686228573 0.0000000000
-2.5837345123 2.4323515892 -0.0684490055 0.0000000000
-0.5038903952 2.4245676994 -0.0642150119 0.0000000000
-0.4797226191 2.4201745987 -0.0978119001 0.0000000000
0.6848877668 2.4083964825 -0.0701989308 0.0000000000
-4.6069417000 2.4685754776 -0.0795216262 0.0000000000
-4.0852613449 2.4642834663 -0.0982247591 0.0000000000
-4.0180196762 2.4606189728 -0.0783922672 0.0000000000
-3.9476327896 2.4561238289 -0.0926489830 0.0000000000
-3.7813212872 2.4990851879 -0.0654186308 0.0000000000
-3.7039561272 2.4934003353 -0.0984282792 0.0000000000
-3.5822923183 2.4596521854 -0.0864861310 0.0000000000
-3.5391094685 2.4812097549 -0.0712445006 0.0000000000
-3.4866492748 2.4766657352 -0.0781844780 0.0000000000
-3.3264398575 2.4964756966 -0.0792844892 0.0000000000
-3.2670149803 2.4659264088 -0.0630333424 0.0000000000
-2.5594093800 2.4587593079 -0.0707288682 0.0000000000
-2.5254111290 2.4666068554 -0.0721313953 0.0000000000
-2.4770495892 2.4952125549 -0.0651048422 0.0000000000
-0.5167838931 2.4513661861 -0.0773153156 0.0000000000
-4.7388987541 2.5040967464 -0.0825305283 0.0000000000
-4.5998749733 2.5042002201 -0.0780059397 0.0000000000
-3.8475363255 2.5112645626 -0.0834595263 0.0000000000
-3.7526144981 2.5087263584 -0.0791910887 0.0000000000
-3.6850759983 2.5000712872 -0.0900790393 0.0000000000
-3.5059580803 2.5222272873 -0.0743838400 0.0000000000
-3.4829204082 2.5221588612 -0.0772374570 0.0000000000
-3.4339172840 2.5213954449 -0.0750846565 0.0000000000
-3.3875212669 2.5279893875 -0.0962709188 0.0000000000
-2.5408968925 2.5167944431 -0.0634821057 0.0000000000
1.3454102278 2.5454130173 -0.0635879636 0.0000000000
-3.7402284145 2.5574331284 -0.0960711241 0.0000000000
-3.6807398796 2.5528745651 -0.0772542953 0.0000000000
0.6939716935 2.5636484623 -0.0756120533 0.0000000000
0.7161953449 2.5809204578 -0.0816865712 0.0000000000
0.7714392543 2.6088533401 -0.0520592444 0.0000000000
-0.4490857124 2.6877245903 -0.0502904952 0.0000000000
0.7014303803 2.6660418510 -0.0889566690 0.0000000000
0.8031795025 2.6591994762 -0.0537091047 0.0000000000
-0.7088952065 2.7297980785 -0.0729778931 0.0000000000
-0.6759343147 2.7223949432 -0.0737327635 0.0000000000
-0.5160502195 2.7287361622 -0.0753360167 0.0000000000
-0.4682581425 2.7157337666 -0.0877248570 0.0000000000
-0.4972456396 2.7579550743 -0.0743407607 0.0000000000
1.2019048929 2.9396309853 -0.0591872074 0.0000000000
1.0490260124 2.9702363014 -0.0585476123 0.0000000000
1.0764358044 2.9633321762 -0.0784914345 0.0000000000
1.1466885805 2.9913063049 -0.0552343391 0.0000000000
1.1903074980 2.9741706848 -0.0655076429 0.0000000000
1.2185523510 2.9523985386 -0.0578228347 0.0000000000
1.2664537430 2.9995632172 -0.0565755554 0.0000000000
1.0687841177 3.0188276768 -0.0700820237 0.0000000000
1.1470315456 3.0358867645 -0.0790109336 0.0000000000
1.1765639782 3.0107314587 -0.0702439100 0.0000000000
1.2242845297 3.0396912098 -0.0768250749 0.0000000000
1.3108478785 3.0128238201 -0.0539618321 0.0000000000
1.1024749279 3.0610718727 -0.0847543702 0.0000000000
1.3496543169 3.0523846149 -0.0519871712 0.0000000000
-0.5169267654 3.5463123322 -0.0949255079 0.0000000000
-0.4942432046 3.5232009888 -0.0758335590 0.0000000000
-0.5330271721 3.5948722363 -0.0694505870 0.0000000000
-0.4926774204 3.5633523464 -0.0741512254 0.0000000000
-0.5610190630 3.6254863739 -0.0747168735 0.0000000000
-0.5313029885 3.6222605705 -0.0880149603 0.0000000000
0.8633729219 3.7315690517 -0.0861689597 0.0000000000
0.8840091228 3.8235907555 -0.0674265698 0.0000000000
0.9729537368 3.8113312721 -0.0998009592 0.0000000000
1.0018455982 3.8044192791 -0.0979056209 0.0000000000
0.8086371422 3.8983933926 -0.0819604993 0.0000000000
0.7419204712 3.9351267815 -0.0720163882 0.0000000000
0.7256669998 3.9718937874 -0.0661952198 0.0000000000
0.7906335592 3.9881691933 -0.0699872077 0.0000000000
0.8112125397 3.9802837372 -0.0684363395 0.0000000000
0.6808731556 4.0246453285 -0.0927252322 0.0000000000
0.7056957483 4.0206880569 -0.0685513765 0.0000000000
0.7698274255 4.0041155815 -0.0714774579 0.0000000000
0.6600818038 4.0790057182 -0.0953192860 0.0000000000
0.6984186769 4.1217875481 -0.0624962561 0.0000000000
0.6085004210 4.2472538948 -0.0702136755 0.0000000000
0.6969922185 4.2806334496 -0.0653628856 0.0000000000
0.6750646234 4.3414583206 -0.0677737296 0.0000000000
0.7004207373 4.3132634163 -0.0849077404 0.0000000000
0.7087494135 4.3689703941 -0.0530232340 0.0000000000
0.6864887476 4.4223799706 -0.0555627048 0.0000000000
0.6996020079 4.4764103889 -0.0892914981 0.0000000000
-1.3591876030 -2.1565091610 -0.0117199719 0.0000000000
-1.3265534639 -2.1567230225 -0.0104217976 0.0000000000
-0.8235632181 -2.1542556286 -0.0282365270 0.0000000000
-0.7680039406 -2.1542117596 -0.0220505483 0.0000000000
-0.7128239870 -2.1589853764 -0.0107238926 0.0000000000
-0.6823135614 -2.1590235233 -0.0302652828 0.0000000000
-0.6251122355 -2.1670956612 -0.0242912173 0.0000000000
-0.5701540709 -2.1620612144 -0.0390684642 0.0000000000
-0.5449869037 -2.1742327213 -0.0401386507 0.0000000000
-2.4570059776 -2.1095540524 -0.0337332711 0.0000000000
-2.2827346325 -2.1295616627 -0.0011341479 0.0000000000
-2.2171492577 -2.1206851006 -0.0279710665 0.0000000000
-2.1665289402 -2.1394968033 -0.0078495946 0.0000000000
-2.1250605583 -2.1469159126 -0.0009294655 0.0000000000
-2.0731067657 -2.1083614826 -0.0207802504 0.0000000000
-2.0114362240 -2.1040184498 -0.0487544090 0.0000000000
-1.9754009247 -2.1206693649 -0.0368198305 0.0000000000
-1.9171215296 -2.1249394417 -0.0356598496 0.0000000000
-1.8618750572 -2.1393761635 -0.0222865939 0.0000000000
-1.8097982407 -2.1057665348 -0.0397684164 0.0000000000
-1.7798093557 -2.1325283051 -0.0114460886 0.0000000000
-1.7251920700 -2.1202735901 -0.0190525521 0.0000000000
-1.6722134352 -2.1298649311 -0.0178390406 0.0000000000
-1.6317831278 -2.1389827728 -0.0361322314 0.0000000000
-1.5686302185 -2.1368620396 -0.0464242697 0.0000000000
-1.5201474428 -2.1330010891 -0.0230059866 0.0000000000
-1.4761447906 -2.1121809483 -0.0291461535 0.0000000000
-1.4356880188 -2.1169455051 -0.0362641886 0.0000000000
-1.3803944588 -2.1298978329 -0.0208992455 0.0000000000
-1.3271447420 -2.1110408306 -0.0259710941 0.0000000000
-1.2776731253 -2.1079111099 -0.0199711509 0.0000000000
-1.2190698385 -2.1102039814 -0.0162557047 0.0000000000
-1.1731487513 -2.1128432751 -0.0138343070 0.0000000000
-1.1124874353 -2.1140208244 -0.0073704454 0.0000000000
-1.0654771328 -2.1145784855 -0.0281132422 0.0000000000
-1.0209200382 -2.1158356667 -0.0280309934 0.0000000000
-0.9681553841 -2.1134212017 -0.0283942837 0.0000000000
-0.9218227863 -2.1163389683 -0.0394991264 0.0000000000
-0.8704684973 -2.1232919693 -0.0348128527 0.0000000000
-0.8223366737 -2.1087152958 -0.0253627580 0.0000000000
-0.7869942188 -2.1150369644 -0.0230938718 0.0000000000
-0.7280892730 -2.1133103371 -0.0262594484 0.0000000000
-0.6723125577 -2.1176776886 -0.0266828053 0.0000000000
-0.6198412776 -2.1085462570 -0.0175579805 0.0000000000
-0.5679699779 -2.1101627350 -0.0119717391 0.0000000000
-0.5375971198 -2.1222503185 -0.0270700101 0.0000000000
-2.4546937943 -2.0620257854 -0.0491946861 0.0000000000
-2.4146184921 -2.0633804798 -0.0356764048 0.0000000000
-2.3747627735 -2.0515801907 -0.0148956366 0.0000000000
-2.2746412754 -2.0718245506 -0.0101414714 0.0000000000
-2.2244381905 -2.0795824528 -0.0196606033 0.0000000000
-2.1770455837 -2.0850093365 -0.0220564362 0.0000000000
-2.1324710846 -2.0844907761 -0.0167815983 0.0000000000
-2.0788190365 -2.0762200356 -0.0204667654 0.0000000000
-2.0259122849 -2.0862946510 -0.0181844104 0.0000000000
-1.9809257984 -2.0930781364 -0.0244551636 0.0000000000
-1.9292476177 -2.0850250721 -0.0385489054 0.0000000000
-1.8763887882 -2.0863847733 -0.0264909305 0.0000000000
-1.8250169754 -2.0884590149 -0.0218602307 0.0000000000
-1.7745375633 -2.0868782997 -0.0180851556 0.0000000000
-1.7177575827 -2.0860750675 -0.0091349762 0.0000000000
-1.6685373783 -2.0730457306 -0.0213834643 0.0000000000
-1.6228691339 -2.0816676617 -0.0192333814 0.0000000000
-1.5893111229 -2.0870740414 -0.0206744783 0.0000000000
-1.5387395620 -2.0940530300 -0.0283036437 0.0000000000
-1.4621930122 -2.0977830887 -0.0288876463 0.0000000000
-1.4316506386 -2.0945842266 -0.0285563413 0.0000000000
-1.3761777878 -2.0943405628 -0.0248219203 0.0000000000
-1.3203643560 -2.0967226028 -0.0221239310 0.0000000000
-1.2669665813 -2.0986416340 -0.0176426508 0.0000000000
-1.2355289459 -2.0912520885 -0.0200735889 0.0000000000
-1.1617302895 -2.0946340561 -0.0078867394 0.0000000000
-1.1338962317 -2.0930182934 -0.0102265049 0.0000000000
-1.0825878382 -2.0951454639 -0.0067236591 0.0000000000
-1.0096758604 -2.0983643532 -0.0014639981 0.0000000000
-0.8948502541 -2.0996987820 -0.0256682802 0.0000000000
-3.7147076130 -2.0148620605 -0.0359021649 0.0000000000
-3.6747143269 -2.0126149654 -0.0217286013 0.0000000000
-3.6152086258 -2.0172231197 -0.0292960797 0.0000000000
-3.5676670074 -2.0108294487 -0.0430419892 0.0000000000
-3.5235531330 -2.0142946243 -0.0367534794 0.0000000000
-2.6728787422 -2.0199961662 -0.0207292344 0.0000000000
-2.6275339127 -2.0213809013 -0.0270075407 0.0000000000
-2.5797452927 -2.0306956768 -0.0108660068 0.0000000000
-2.4875359535 -2.0138235092 -0.0264032818 0.0000000000
-2.4011757374 -2.0290274620 -0.0450309664 0.0000000000
-2.3875651360 -2.0217700005 -0.0303996690 0.0000000000
-3.6807305813 -1.9848359823 -0.0252953470 0.0000000000
-3.6333885193 -1.9942144156 -0.0211603828 0.0000000000
-3.5659041405 -1.9952443838 -0.0368855186 0.0000000000
-3.5039405823 -1.9980480671 -0.0168875642 0.0000000000
-2.6580882072 -1.9607607126 -0.0260505285 0.0000000000
-2.6156919003 -1.9643800259 -0.0082025081 0.0000000000
-2.5616455078 -1.9685001373 -0.0076698530 0.0000000000
-2.5248799324 -1.9862110615 -0.0057188589 0.0000000000
-2.4700808525 -1.9690530300 -0.0269385725 0.0000000000
-2.4319791794 -1.9862238169 -0.0421988219 0.0000000000
-2.3689424992 -1.9846441746 -0.0214922018 0.0000000000
-0.4808685184 -1.9523844719 -0.0113701113 0.0000000000
-0.4305540323 -1.9561949968 -0.0276905484 0.0000000000
-0.3806174695 -1.9587141275 -0.0226045549 0.0000000000
-0.3356618285 -1.9649827480 -0.0046966709 0.0000000000
-3.3552002907 -1.9337732792 -0.0331553705 0.0000000000
-2.9745528698 -1.9043754339 -0.0114477482 0.0000000000
-2.9212620258 -1.9178339243 -0.0260517299 0.0000000000
-2.6159672737 -1.9091761112 -0.0258853771 0.0000000000
-2.5908308029 -1.9358989000 -0.0069380887 0.0000000000
-0.4702403247 -1.9161032438 -0.0373405218 0.0000000000
-0.4300579429 -1.9176287651 -0.0334144682 0.0000000000
-0.3826870620 -1.9110050201 -0.0335331447 0.0000000000
-0.3297315836 -1.9185705185 -0.0241898634 0.0000000000
-0.2770719528 -1.9176994562 -0.0132663129 0.0000000000
-3.3019340038 -1.8995382786 -0.0442950949 0.0000000000
-3.1517241001 -1.8574938774 -0.0418080613 0.0000000000
-3.1121599674 -1.8676844835 -0.0209378954 0.0000000000
-3.0691511631 -1.8694844246 -0.0116119348 0.0000000000
-3.0325620174 -1.8708220720 -0.0250230171 0.0000000000
-2.9777438641 -1.8598264456 -0.0309725944 0.0000000000
-2.9351675510 -1.8769479990 -0.0243545789 0.0000000000
-2.8864321709 -1.8842654228 -0.0371486582 0.0000000000
-2.5691444874 -1.8813700676 -0.0092455037 0.0000000000
-0.3013369739 -1.8949080706 -0.0306640062 0.0000000000
-3.1609580517 -1.8456100225 -0.0253939480 0.0000000000
-3.1221375465 -1.8408267498 -0.0216858108 0.0000000000
-3.0617942810 -1.8443003893 -0.0281799026 0.0000000000
-2.4764549732 -1.7891333103 -0.0167456176 0.0000000000
-2.4209616184 -1.7519596815 -0.0216762908 0.0000000000
-3.8108382225 -1.7002974749 -0.0181408525 0.0000000000
-2.4649941921 -1.7467738390 -0.0383013412 0.0000000000
-2.4321806431 -1.7383213043 -0.0176497288 0.0000000000
-2.3844692707 -1.7031337023 -0.0229560025 0.0000000000
-3.8292315006 -1.6815258265 -0.0177802145 0.0000000000
-3.7209205627 -1.6865465641 -0.0186778009 0.0000000000
-3.6761569977 -1.6709686518 -0.0296275765 0.0000000000
-3.6486413479 -1.6568413973 -0.0178632047 0.0000000000
-3.5913243294 -1.6642063856 -0.0366372801 0.0000000000
-2.4734971523 -1.6661411524 -0.0005888250 0.0000000000
-2.4245374203 -1.6719615459 -0.0326118246 0.0000000000
0.0694478080 -1.6571255922 -0.0022948850 0.0000000000
-3.8470187187 -1.6283588409 -0.0167968869 0.0000000000
-3.7822306156 -1.6311130524 -0.0193709806 0.0000000000
-3.7441363335 -1.6356263161 -0.0273122266 0.0000000000
-3.6912066936 -1.6460832357 -0.0309499055 0.0000000000
-0.2084843814 -1.6326369047 -0.0219504870 0.0000000000
-0.1854168028 -1.6041202545 -0.0299110580 0.0000000000
0.0440562367 -1.6193914413 -0.0058012349 0.0000000000
-3.9313595295 -1.5798004866 -0.0476105213 0.0000000000
-3.8791501522 -1.5740532875 -0.0307499301 0.0000000000
-3.8192157745 -1.5767089128 -0.0227088425 0.0000000000
-3.7817873955 -1.5818321705 -0.0280791223 0.0000000000
-0.1722316444 -1.5781978369 -0.0219058134 0.0000000000
-0.1317656636 -1.5603646040 -0.0194045380 0.0000000000
-0.0720119104 -1.5665326118 -0.0206589513 0.0000000000
-0.0205935836 -1.5684863329 -0.0137764886 0.0000000000
0.0175553337 -1.5817605257 -0.0110830888 0.0000000000
-4.0281043053 -1.5295577049 -0.0263101216 0.0000000000
-3.9814903736 -1.5429058075 -0.0395818166 0.0000000000
-3.9264280796 -1.5336538553 -0.0312030818 0.0000000000
-1.6238967180 -1.5179396868 -0.0420604572 0.0000000000
-0.1103513390 -1.5402293205 -0.0195793100 0.0000000000
-0.0695382729 -1.5373246670 -0.0198668726 0.0000000000
-0.0367012434 -1.5465822220 -0.0174831636 0.0000000000
-1.6669842005 -1.4733561277 -0.0295161754 0.0000000000
-1.6292192936 -1.4800109863 -0.0315612145 0.0000000000
-1.6605495214 -1.4413340092 -0.0326929279 0.0000000000
-1.6355409622 -1.4404586554 -0.0295713395 0.0000000000
-0.2180888802 -1.4114831686 -0.0350722857 0.0000000000
-4.2895789146 -1.3870707750 -0.0217349678 0.0000000000
-3.6997668743 -1.3904029131 -0.0017851591 0.0000000000
-0.2158691287 -1.3908115625 -0.0434600301 0.0000000000
-0.1925816238 -1.3897231817 -0.0404499844 0.0000000000
-3.5963149071 -1.3275060654 -0.0147455633 0.0000000000
-3.5091781616 -1.3294111490 -0.0007434096 0.0000000000
-3.4911501408 -1.3027746677 -0.0411330312 0.0000000000
-0.1575312465 -1.3247269392 -0.0454056673 0.0000000000
-0.1132172346 -1.3261615038 -0.0395688824 0.0000000000
-0.0688382685 -1.3300127983 -0.0367830768 0.0000000000
-0.0085435743 -1.3193986416 -0.0284687206 0.0000000000
0.0260029584 -1.3130548000 -0.0242846720 0.0000000000
0.0733933449 -1.3217997551 -0.0297206435 0.0000000000
0.1237839833 -1.3076303005 -0.0284171663 0.0000000000
0.1948676109 -1.3019289970 -0.0453448445 0.0000000000
-3.5729219913 -1.2647296190 -0.0181686487 0.0000000000
-3.5010647774 -1.2884705067 -0.0222739466 0.0000000000
-3.4707610607 -1.2682985067 -0.0421497971 0.0000000000
-2.3365209103 -1.2650585175 -0.0386051387 0.0000000000
0.0487681255 -1.2977474928 -0.0235467926 0.0000000000
0.0947056711 -1.2954915762 -0.0200911053 0.0000000000
0.1458353996 -1.2892240286 -0.0156493075 0.0000000000
0.1947980523 -1.2934021950 -0.0201952513 0.0000000000
0.2455729693 -1.2886210680 -0.0288856532 0.0000000000
0.2927341759 -1.2857500315 -0.0275887605 0.0000000000
0.3264192045 -1.2868078947 -0.0296164658 0.0000000000
0.3888928294 -1.2737865448 -0.0113896728 0.0000000000
0.4195425212 -1.2695244551 -0.0114731928 0.0000000000
-3.5925254822 -1.2255703211 -0.0258941054 0.0000000000
-3.5186157227 -1.2335186005 -0.0178043302 0.0000000000
-3.4867067337 -1.2281482220 -0.0095073730 0.0000000000
-2.3149895668 -1.2337648869 -0.0284020789 0.0000000000
-3.7200798988 -1.1631090641 -0.0374355614 0.0000000000
-3.4895310402 -1.1534827948 -0.0073012915 0.0000000000
-3.4486930370 -1.1803693771 -0.0198187679 0.0000000000
-3.6787881851 -1.1170659065 -0.0305743515 0.0000000000
-3.6311182976 -1.1236417294 -0.0196251832 0.0000000000
-3.4974780083 -1.1282478571 -0.0083200540 0.0000000000
-3.4385056496 -1.1378412247 -0.0089740008 0.0000000000
-3.8265619278 -1.0566205978 -0.0314822495 0.0000000000
-3.7383775711 -1.0774321556 -0.0092971642 0.0000000000
-3.6772480011 -1.0885314941 -0.0227465034 0.0000000000
-3.6277701855 -1.0799460411 -0.0286385622 0.0000000000
-3.5821604729 -1.0976567268 -0.0100996103 0.0000000000
-3.5358686447 -1.0699276924 -0.0195866376 0.0000000000
-3.4715943336 -1.0929596424 -0.0094763245 0.0000000000
-3.3927199841 -1.0857129097 -0.0233366042 0.0000000000
-3.7244195938 -1.0183980465 -0.0205545872 0.0000000000
-3.6524989605 -1.0484901667 -0.0401663184 0.0000000000
-3.6406319141 -1.0212658644 -0.0495619401 0.0000000000
-3.5549755096 -1.0046277046 -0.0291573256 0.0000000000
-3.5271048546 -1.0225400925 -0.0153528005 0.0000000000
-3.4993603230 -1.0402444601 -0.0015594214 0.0000000000
-3.6693880558 -0.9677739143 -0.0255626887 0.0000000000
-3.5805342197 -0.9792453051 -0.0212337896 0.0000000000
-3.5061073303 -0.9666265249 -0.0052087158 0.0000000000
-3.4701631069 -0.9576579332 -0.0301411897 0.0000000000
-3.6114892960 -0.9186273813 -0.0194898061 0.0000000000
-3.5570788383 -0.9389861822 -0.0159608033 0.0000000000
-3.5305509567 -0.9232074022 -0.0199958235 0.0000000000
-3.4846768379 -0.9366298914 -0.0188992918 0.0000000000
-3.5712733269 -0.8588722348 -0.0109345466 0.0000000000
-3.5185518265 -0.8835875988 -0.0093585402 0.0000000000
-3.4832332134 -0.8755925894 -0.0340136439 0.0000000000
-1.9638289213 -0.5099331737 -0.0277844686 0.0000000000
-1.9215084314 -0.5182223320 -0.0337630436 0.0000000000
-1.9579691887 -0.4784424901 -0.0062147398 0.0000000000
-1.9218750000 -0.4774854779 -0.0331817418 0.0000000000
-1.8931173086 -0.4800707102 -0.0325199328 0.0000000000
-1.9173357487 -0.4359252155 -0.0154932290 0.0000000000
-1.8722155094 -0.4276362360 -0.0306908675 0.0000000000
-1.8641561270 -0.3756521344 -0.0231731031 0.0000000000
-1.8361748457 -0.3890389800 -0.0291837789 0.0000000000
-1.8629102707 -0.3280510306 -0.0166045222 0.0000000000
-1.8236709833 -0.3240811527 -0.0241901148 0.0000000000
-1.8761143684 -0.2744266987 -0.0296374299 0.0000000000
