VERSION 0.7
FIELDS x y z rgb
SIZE 4 4 4 4
TYPE F F F F
COUNT 1 1 1 1
WIDTH 901
HEIGHT 1
VIEWPOINT 0.0 0.0 0.0 1.0 0.0 0.0 0.0
POINTS 901
DATA ascii
1.2439174652 -3.5013313293 0.0737096518 0.0000000000
-1.9111680984 -3.4546489716 0.0782346874 0.0000000000
1.2140464783 -3.4858810902 0.0717107952 0.0000000000
1.2769361734 -3.4910066128 0.0758936554 0.0000000000
-1.9177572727 -3.4137814045 0.0830622166 0.0000000000
-0.8327549696 -3.4284248352 0.0804537237 0.0000000000
-0.7998579741 -3.4034459591 0.0989717245 0.0000000000
1.1737600565 -3.4398062229 0.0689914525 0.0000000000
1.0976811647 -3.3530735970 0.0638563931 0.0000000000
1.1348623037 -3.3951747417 0.0663657337 0.0000000000
0.8891442418 -3.3022058010 0.0944007337 0.0000000000
0.9608689547 -3.3010435104 0.0886246264 0.0000000000
1.0237817764 -3.3302650452 0.0704256743 0.0000000000
1.0625451803 -3.3488686085 0.0732239336 0.0000000000
-0.2858309746 -3.2693212032 0.0669843107 0.0000000000
0.8789941072 -3.2710883617 0.0756448209 0.0000000000
0.9228259921 -3.2771143913 0.0855512172 0.0000000000
0.9896653295 -3.2900528908 0.0680226684 0.0000000000
-1.8695323467 -3.2028927803 0.0974148065 0.0000000000
-0.6199163795 -3.2096996307 0.0816356093 0.0000000000
-0.5752887726 -3.2155036926 0.0864565223 0.0000000000
-0.4692127705 -3.2225620747 0.0954158902 0.0000000000
-0.3679732084 -3.2407107353 0.0520062596 0.0000000000
-0.3228998780 -3.2421953678 0.0568550974 0.0000000000
0.9528249502 -3.2373871803 0.0541251116 0.0000000000
-1.8540771008 -3.1857035160 0.0601001084 0.0000000000
-0.7093238235 -3.1980748177 0.0720271021 0.0000000000
-0.6633889675 -3.1974658966 0.0767102093 0.0000000000
-0.5260438323 -3.1900141239 0.0905694664 0.0000000000
-0.8156710863 -2.7571039200 0.0537548512 0.0000000000
-0.7535370588 -2.6798610687 0.0897287428 0.0000000000
-0.7333117127 -2.6958503723 0.0879594386 0.0000000000
-0.9544824362 -2.6385548115 0.0694956928 0.0000000000
-0.9902696013 -2.5988748074 0.0659942180 0.0000000000
2.3696713448 -2.5614964962 0.0952109843 0.0000000000
2.4126989841 -2.5680427551 0.0975423902 0.0000000000
-0.9856108427 -2.5293054581 0.0981802046 0.0000000000
0.7040132880 -2.4385251999 0.0552150607 0.0000000000
0.7138734460 -2.3229987621 0.0854186416 0.0000000000
0.7503218055 -2.3118264675 0.0688598007 0.0000000000
0.8119415641 -2.3128626347 0.0686291605 0.0000000000
0.7217082381 -2.2790913582 0.0853155255 0.0000000000
0.8577749133 -2.2850351334 0.0717758536 0.0000000000
0.7410534620 -1.8892266750 0.0629675090 0.0000000000
0.7562178373 -1.8600388765 0.0672694892 0.0000000000
0.7306675315 -1.7709302902 0.0642549098 0.0000000000
0.7486100793 -1.7457127571 0.0999557525 0.0000000000
0.7877151370 -1.7192518711 0.0763591453 0.0000000000
0.8246662021 -1.6982063055 0.0662394762 0.0000000000
0.8749296665 -1.6857351065 0.0708724782 0.0000000000
0.9314197898 -1.6679267883 0.0694308579 0.0000000000
0.9550255537 -1.6655831337 0.0543362759 0.0000000000
1.0000787973 -1.6538120508 0.0557850339 0.0000000000
1.0316331387 -1.6395268440 0.0578744300 0.0000000000
1.0650837421 -1.6391448975 0.0601218008 0.0000000000
1.1197948456 -1.6267535686 0.0641395301 0.0000000000
1.1628875732 -1.6029016972 0.0803368390 0.0000000000
1.5431395769 -1.2680112123 0.0748754293 0.0000000000
1.5561665297 -1.2784309387 0.0849279314 0.0000000000
1.5693721771 -1.2249195576 0.0914417356 0.0000000000
1.5433868170 -1.1707596779 0.0771678537 0.0000000000
1.5548077822 -1.1833313704 0.0585950874 0.0000000000
1.5762027502 -1.1304875612 0.0740140527 0.0000000000
1.5883706808 -1.0826362371 0.0522213839 0.0000000000
1.6214817762 -1.0681966543 0.0705675408 0.0000000000
1.6712167263 -1.0439825058 0.0805834085 0.0000000000
1.7004703283 -1.0097273588 0.0625207871 0.0000000000
1.6643620729 -0.9796088338 0.0715120286 0.0000000000
1.5681703091 -0.9164928198 0.0787295625 0.0000000000
1.6256698370 -0.9013325572 0.0852941871 0.0000000000
1.6594401598 -0.9307830930 0.0766273513 0.0000000000
1.5771141052 -0.8917416930 0.0746995062 0.0000000000
1.6396694183 -0.8848162293 0.0792146549 0.0000000000
1.6566689014 -0.8696846962 0.0818653256 0.0000000000
1.7303446531 -0.8670840263 0.0762937963 0.0000000000
1.6783324480 -0.7414498329 0.0879760757 0.0000000000
1.7186657190 -0.7374750376 0.0737878829 0.0000000000
1.7744159698 -0.7429943085 0.0863196924 0.0000000000
1.8559919596 -0.7225807905 0.0847125500 0.0000000000
1.2188124657 -0.6173962951 0.0732493475 0.0000000000
1.2544564009 -0.6134663224 0.0530148782 0.0000000000
1.2339954376 -0.5884184837 0.0757353157 0.0000000000
1.2665978670 -0.5700970292 0.0598870367 0.0000000000
1.2957059145 -0.5493215322 0.0552209727 0.0000000000
3.1856539249 -0.2664377689 0.0698505566 0.0000000000
3.0726525784 -0.2117560059 0.0907848328 0.0000000000
3.1099863052 -0.2296051681 0.0760660842 0.0000000000
2.9796512127 -0.1613013744 0.0767326653 0.0000000000
3.0456521511 -0.1870843768 0.0783820301 0.0000000000
2.8806500435 -0.1135373861 0.0741798133 0.0000000000
2.9166505337 -0.1366183162 0.0750614852 0.0000000000
2.7766489983 -0.0687478185 0.0714567453 0.0000000000
2.8331494331 -0.0908191428 0.0729548857 0.0000000000
1.6721864939 -0.0278663971 0.0797247663 0.0000000000
2.6791474819 -0.0169174727 0.0587383024 0.0000000000
2.7326478958 -0.0267252997 0.0807335600 0.0000000000
2.7536485195 -0.0475684367 0.0708637163 0.0000000000
1.5316460133 0.0469433069 0.0628115311 0.0000000000
1.5718963146 0.0373680368 0.0764194652 0.0000000000
1.6291466951 0.0217156727 0.0854020864 0.0000000000
1.6846469641 0.0103009949 0.0661950111 0.0000000000
1.7113128901 0.0360204652 0.0549133085 0.0000000000
1.4921454191 0.0729755312 0.0554796346 0.0000000000
1.5119789839 0.0611101985 0.0639149323 0.0000000000
1.6936450005 0.0889508426 0.0823062286 0.0000000000
1.7056449652 0.0963841006 0.0894026905 0.0000000000
1.6976445913 0.1086570993 0.0760455355 0.0000000000
1.7106440067 0.1344544142 0.0795061216 0.0000000000
2.5316443443 0.1069676355 0.0554980673 0.0000000000
1.7082144022 0.1728549302 0.0727801025 0.0000000000
2.2516431808 0.1587953568 0.0836782828 0.0000000000
1.7090167999 0.2203753144 0.0667798072 0.0000000000
2.1666412354 0.2418554425 0.0640043616 0.0000000000
2.2226417065 0.2239179015 0.0656588525 0.0000000000
2.2516419888 0.2102682441 0.0665159896 0.0000000000
1.6956404448 0.2732250094 0.0565521158 0.0000000000
1.7101404667 0.2661410868 0.0570607074 0.0000000000
2.1266400814 0.2851800323 0.0628200993 0.0000000000
2.1526405811 0.2646607459 0.0635892451 0.0000000000
2.0691390038 0.3234891593 0.0926549211 0.0000000000
1.9303874969 0.3908006251 0.0680604503 0.0000000000
1.9763046503 0.3772848248 0.0734073967 0.0000000000
2.0266380310 0.3623449802 0.0830505639 0.0000000000
1.7856361866 0.4431575835 0.0664062873 0.0000000000
1.8268866539 0.4300638139 0.0748478323 0.0000000000
1.8763035536 0.4123195708 0.0760705099 0.0000000000
1.9146372080 0.4055157006 0.0857333839 0.0000000000
1.6316347122 0.4955795109 0.0705594495 0.0000000000
1.6756352186 0.4854047894 0.0778423995 0.0000000000
1.7241356373 0.4657682776 0.0706462190 0.0000000000
1.7658360004 0.4565958977 0.0817635953 0.0000000000
1.4834114313 0.5401719809 0.0677236766 0.0000000000
1.5267590284 0.5323745012 0.0741746426 0.0000000000
1.5715509653 0.5183187127 0.0743493810 0.0000000000
1.6179679632 0.5103409290 0.0889258906 0.0000000000
1.3006324768 0.5980857015 0.0929306746 0.0000000000
1.4761334658 0.5554535985 0.0829698220 0.0000000000
1.2866324186 0.6009714007 0.0968333781 0.0000000000
1.3056321144 0.6105074286 0.0883115381 0.0000000000
1.3896311522 0.6420760155 0.0516265780 0.0000000000
1.4426312447 0.6462878585 0.0755739361 0.0000000000
1.4730160236 0.6391797066 0.0736949220 0.0000000000
1.5225317478 0.6287935972 0.0751605332 0.0000000000
1.5745317936 0.6194095016 0.0728981346 0.0000000000
1.6026319265 0.6130191088 0.0717524961 0.0000000000
1.3285250664 0.6773175001 0.0765070990 0.0000000000
1.3736307621 0.6611629725 0.0719733462 0.0000000000
1.4333450794 0.6589497328 0.0782488883 0.0000000000
-2.9081101418 -4.6186337471 0.1306753755 0.0000000000
-2.9414541721 -4.5525188446 0.1390917897 0.0000000000
-2.8962328434 -4.5588064194 0.1498188376 0.0000000000
-2.9758687019 -4.5480437279 0.1353741884 0.0000000000
-2.2514610291 -4.4028739929 0.1256546378 0.0000000000
-2.1782302856 -4.3587145805 0.1458239555 0.0000000000
-2.0795395374 -4.3704099655 0.1400492787 0.0000000000
-2.0453956127 -4.3737101555 0.1273018420 0.0000000000
-2.3377270699 -4.3368315697 0.1121584773 0.0000000000
-2.2731802464 -4.3452262878 0.1191311479 0.0000000000
-2.1235823631 -4.3104996681 0.1257806420 0.0000000000
-2.0851628780 -4.3147454262 0.1191089749 0.0000000000
-3.0248208046 -4.2531719208 0.1201138496 0.0000000000
-2.2801091671 -4.2916440964 0.1305157840 0.0000000000
-2.9568789005 -4.2081313133 0.1223395467 0.0000000000
-2.8910646439 -4.1648464203 0.1245284677 0.0000000000
-2.9547462463 -4.1079344749 0.1445180178 0.0000000000
0.7159215212 -3.8829431534 0.1259194613 0.0000000000
0.7598056793 -3.8424537182 0.1392177641 0.0000000000
1.2829606533 -3.8160035610 0.1098562032 0.0000000000
0.7973513603 -3.7581682205 0.1340907514 0.0000000000
1.1176681519 -3.7639880180 0.1179050356 0.0000000000
1.1951258183 -3.7723050117 0.1009530351 0.0000000000
1.2324136496 -3.7771549225 0.1049810722 0.0000000000
0.7916247845 -3.7233405113 0.1080034673 0.0000000000
0.8164831996 -3.7265737057 0.1106888056 0.0000000000
1.0074063540 -3.7173554897 0.1063344181 0.0000000000
0.8047536612 -3.6944785118 0.1345917881 0.0000000000
0.9424940944 -3.6810760498 0.1493265629 0.0000000000
0.9896989465 -3.6759700775 0.1378975511 0.0000000000
1.0394874811 -3.6694869995 0.1020633876 0.0000000000
0.8091862202 -3.6174263954 0.1224121377 0.0000000000
0.8752465248 -3.6403174400 0.1173144579 0.0000000000
0.9279410839 -3.6122827530 0.1271738261 0.0000000000
1.0456458330 -3.6321890354 0.1358114630 0.0000000000
0.8438822031 -3.5998933315 0.1322657168 0.0000000000
0.9885032773 -3.5680375099 0.1417798549 0.0000000000
-1.9483010769 -3.5211765766 0.1274918020 0.0000000000
-1.9044592381 -3.4923329353 0.1292074621 0.0000000000
-1.8840527534 -3.4596674442 0.1026713252 0.0000000000
1.1835091114 -3.4746091366 0.1438599527 0.0000000000
1.2126507759 -3.4893925190 0.1465183347 0.0000000000
-0.8200889826 -3.4346251488 0.1474425793 0.0000000000
-0.7955786586 -3.4062573910 0.1319382787 0.0000000000
-0.8568022847 -3.3991405964 0.1375136673 0.0000000000
-0.8406738043 -3.3987014294 0.1026886702 0.0000000000
1.0079237223 -3.3540947437 0.1272831112 0.0000000000
0.8500893712 -3.3078520298 0.1134858429 0.0000000000
0.9520351291 -3.3111391068 0.1332550049 0.0000000000
1.0441848040 -3.3299834728 0.1066924185 0.0000000000
-0.2893866301 -3.2721688747 0.1143115014 0.0000000000
0.8817658424 -3.2733364105 0.1331171691 0.0000000000
0.9201482534 -3.2956852913 0.1265295595 0.0000000000
-1.8580142260 -3.2096598148 0.1406399608 0.0000000000
-0.7212247252 -3.2326259613 0.1179890707 0.0000000000
-0.6239770055 -3.2057418823 0.1263726652 0.0000000000
-0.5793982148 -3.2115395069 0.1311882585 0.0000000000
-0.4555147886 -3.2268640995 0.1332195848 0.0000000000
-0.4187162220 -3.2307310104 0.1239516288 0.0000000000
-0.3736267090 -3.2351515293 0.1080118269 0.0000000000
-0.3290478587 -3.2409491539 0.1128274202 0.0000000000
-1.8854737282 -3.1865587234 0.1278918982 0.0000000000
-0.6685558558 -3.1999444962 0.1215570122 0.0000000000
-0.5311671495 -3.1924712658 0.1350384057 0.0000000000
-0.4873809814 -3.1970725060 0.1240105629 0.0000000000
-1.8564827442 -3.1360354424 0.1490238905 0.0000000000
-1.0723631382 -3.0576090813 0.1224848032 0.0000000000
-1.0328797102 -3.0742955208 0.1476850510 0.0000000000
-0.9685882926 -3.0653936863 0.1386961043 0.0000000000
-1.0443480015 -3.0296704769 0.1069784760 0.0000000000
-0.9131380320 -2.9558835030 0.1362301558 0.0000000000
-0.8693615794 -2.9601154327 0.1198864132 0.0000000000
-0.8800972700 -2.9165370464 0.1366375536 0.0000000000
1.0495109558 -2.8221020699 0.1421367377 0.0000000000
1.0818310976 -2.7744033337 0.1235059947 0.0000000000
1.1156864166 -2.7706198692 0.1364784539 0.0000000000
1.1295895576 -2.7415933609 0.1268883049 0.0000000000
-0.7605506182 -2.6693503857 0.1398494542 0.0000000000
-0.7351472974 -2.6812834740 0.1432511508 0.0000000000
-0.9759180546 -2.6073827744 0.1220267415 0.0000000000
-0.7609125376 -2.6494579315 0.1012068391 0.0000000000
-1.0072273016 -2.5781319141 0.1269021928 0.0000000000
2.3481128216 -2.5597126484 0.1201140881 0.0000000000
2.3877134323 -2.5442295074 0.1226010323 0.0000000000
2.4122569561 -2.5199775696 0.1329448968 0.0000000000
2.3403484821 -2.4974732399 0.1456183344 0.0000000000
2.4433043003 -2.4887423515 0.1262426525 0.0000000000
2.4747018814 -2.4817829132 0.1150850579 0.0000000000
2.5312349796 -2.4999773502 0.1315615773 0.0000000000
0.7371332049 -1.8139352798 0.1254911423 0.0000000000
0.7399686575 -1.7699532509 0.1235153303 0.0000000000
0.7457758188 -1.7226712704 0.1424495727 0.0000000000
0.7851824164 -1.7170615196 0.1454477459 0.0000000000
0.8265117407 -1.6913852692 0.1259239614 0.0000000000
0.8844828606 -1.6764860153 0.1057314575 0.0000000000
0.9329741597 -1.6616584063 0.1028192341 0.0000000000
0.9774245620 -1.6581439972 0.1107582226 0.0000000000
1.0421143770 -1.6587600708 0.1082647741 0.0000000000
1.0639224052 -1.6481132507 0.1099213511 0.0000000000
1.1281098127 -1.6179780960 0.1064613685 0.0000000000
1.5715700388 -1.2636883259 0.1083129793 0.0000000000
1.5679147243 -1.1728680134 0.1145711616 0.0000000000
1.5959231853 -1.1242479086 0.1234737784 0.0000000000
1.6917896271 -1.0672971010 0.1157057881 0.0000000000
1.6911090612 -1.0076074600 0.1031379998 0.0000000000
1.6101714373 -0.9545184970 0.1275191009 0.0000000000
1.6740262508 -0.9639759660 0.1022032052 0.0000000000
1.5667705536 -0.9157197475 0.1240100786 0.0000000000
1.6767089367 -0.9144214392 0.1068337113 0.0000000000
1.5783970356 -0.8894966841 0.1265845895 0.0000000000
1.6316697598 -0.8878540397 0.1270659715 0.0000000000
1.6566690207 -0.8713637590 0.1332061738 0.0000000000
1.7198178768 -0.8829178214 0.1081452072 0.0000000000
1.7374987602 -0.8446204662 0.1137145311 0.0000000000
1.7378330231 -0.7550865412 0.1275747716 0.0000000000
1.6896659136 -0.7418934703 0.1015093699 0.0000000000
1.7676659822 -0.7426126003 0.1263947040 0.0000000000
1.8708865643 -0.7179815769 0.1252229214 0.0000000000
2.5696661472 -0.7424440384 0.1347234547 0.0000000000
2.6086654663 -0.7133449316 0.1367637217 0.0000000000
2.5886640549 -0.6589073539 0.1357117742 0.0000000000
2.6086645126 -0.6835277081 0.1367612779 0.0000000000
1.2190437317 -0.6155134439 0.1241442338 0.0000000000
1.2584927082 -0.6084398627 0.1129132211 0.0000000000
2.5696632862 -0.6348211765 0.1347146630 0.0000000000
2.6086628437 -0.6139544249 0.1367556006 0.0000000000
1.2343465090 -0.5902265906 0.1226830706 0.0000000000
1.2655936480 -0.5740961432 0.1154912114 0.0000000000
3.4056615829 -0.5671781301 0.1265938729 0.0000000000
3.4746611118 -0.5512821674 0.1026788577 0.0000000000
3.4396603107 -0.5287086964 0.1191168875 0.0000000000
3.4396598339 -0.4937618971 0.1278505772 0.0000000000
3.4746592045 -0.4718514383 0.1291485727 0.0000000000
3.4396581650 -0.4282381237 0.1278451979 0.0000000000
1.7586519718 -0.1739918888 0.1458083093 0.0000000000
1.7496508360 -0.1266312301 0.1450587660 0.0000000000
2.8926503658 -0.1138200834 0.1075054780 0.0000000000
2.9166507721 -0.1366155893 0.1083986312 0.0000000000
1.7361496687 -0.0775016919 0.1395146698 0.0000000000
2.7766489983 -0.0687452257 0.1031938940 0.0000000000
2.8446497917 -0.0910023674 0.1057210267 0.0000000000
1.6256477833 -0.0093513345 0.1347756088 0.0000000000
1.6776479483 -0.0133497026 0.1109287739 0.0000000000
1.7186484337 -0.0400551669 0.1293861568 0.0000000000
1.6459802389 0.0287661571 0.1406450719 0.0000000000
1.6705040932 0.0234616306 0.1165917143 0.0000000000
1.6486463547 0.0539732762 0.1492398232 0.0000000000
1.6780207157 0.0718187094 0.1295321286 0.0000000000
1.7056456804 0.0833902434 0.1413961500 0.0000000000
1.6808446646 0.1276094615 0.1367884874 0.0000000000
2.4596440792 0.1401390731 0.1476329118 0.0000000000
1.6806433201 0.1775656641 0.1393171698 0.0000000000
2.3271427155 0.1921737194 0.1396794319 0.0000000000
2.3756432533 0.1700222939 0.1425909549 0.0000000000
2.4256436825 0.1560637802 0.1455918252 0.0000000000
1.6806424856 0.2095847130 0.1393145472 0.0000000000
2.1799747944 0.2408406436 0.1198062822 0.0000000000
2.2151417732 0.2314281911 0.1413682699 0.0000000000
2.2806422710 0.2135613710 0.1368879378 0.0000000000
2.1288068295 0.2855629921 0.1277564019 0.0000000000
2.1610410213 0.2592491210 0.1330323219 0.0000000000
2.0685281754 0.3295307755 0.1206389293 0.0000000000
2.1136395931 0.3127131164 0.1375985742 0.0000000000
1.9466376305 0.3982112408 0.1020004824 0.0000000000
1.9836379290 0.3915192187 0.1190855801 0.0000000000
2.0266380310 0.3719434738 0.1235897765 0.0000000000
2.0506384373 0.3593799472 0.1074506715 0.0000000000
1.8278865814 0.4442637563 0.1202190444 0.0000000000
1.8728367090 0.4327606261 0.1238375008 0.0000000000
1.9237622023 0.4167535305 0.1282884777 0.0000000000
1.9686374664 0.4032218456 0.1332120001 0.0000000000
1.6851352453 0.4927442968 0.1161480471 0.0000000000
1.7273856401 0.4831809700 0.1234283596 0.0000000000
1.7749997377 0.4660358727 0.1286930591 0.0000000000
1.8186362982 0.4522293210 0.1299587041 0.0000000000
1.5273005962 0.5432806015 0.1169148162 0.0000000000
1.5733842850 0.5349572301 0.1243729368 0.0000000000
1.6257256269 0.5187879801 0.1291192025 0.0000000000
1.6646349430 0.5052446127 0.1316219121 0.0000000000
1.3006325960 0.5980869532 0.1077992544 0.0000000000
1.4838000536 0.5623543859 0.1136139780 0.0000000000
1.5100623369 0.5552855134 0.1301000565 0.0000000000
1.3006323576 0.6079993844 0.1077984571 0.0000000000
1.4486314058 0.6491663456 0.1255771071 0.0000000000
1.4817851782 0.6424077749 0.1227962971 0.0000000000
1.5264497995 0.6345527768 0.1243362874 0.0000000000
1.5636320114 0.6242191195 0.1210515425 0.0000000000
1.3313639164 0.6828846335 0.1238436475 0.0000000000
1.3741308451 0.6703820825 0.1237686351 0.0000000000
1.4256311655 0.6609410048 0.1325514019 0.0000000000
1.4576312304 0.6534780860 0.1263909787 0.0000000000
-2.9474375248 -4.5553894043 0.1910238266 0.0000000000
-2.8958158493 -4.5621037483 0.1966003776 0.0000000000
-2.2571423054 -4.4055991173 0.1749680638 0.0000000000
-2.0736198425 -4.4271588326 0.1615083814 0.0000000000
-2.1819708347 -4.3605089188 0.1782913804 0.0000000000
-2.0690135956 -4.3751997948 0.1904935390 0.0000000000
-2.2787911892 -4.3479175568 0.1678322554 0.0000000000
-2.0916280746 -4.3178462982 0.1752260029 0.0000000000
-2.9354817867 -4.2693524361 0.1955077648 0.0000000000
-2.3015882969 -4.2922291756 0.1768944860 0.0000000000
-2.9924485683 -4.2057571411 0.1509631276 0.0000000000
-2.9928412437 -4.1560602188 0.1776855588 0.0000000000
-2.9262068272 -4.1625013351 0.1528079510 0.0000000000
-2.8947143555 -4.1665968895 0.1562100053 0.0000000000
-2.8784322739 -4.0701951981 0.1789775491 0.0000000000
-2.9218342304 -4.0157036781 0.1689230800 0.0000000000
-2.9190974236 -3.9682312012 0.1639646888 0.0000000000
0.7382209301 -3.9622735977 0.1964915842 0.0000000000
0.7195689678 -3.9215698242 0.1667627245 0.0000000000
0.7520543337 -3.8894875050 0.1564122140 0.0000000000
0.7497430444 -3.8479549885 0.1950442791 0.0000000000
0.7776826620 -3.7897272110 0.1579243839 0.0000000000
1.1104650497 -3.7674427032 0.1804253012 0.0000000000
1.2478823662 -3.7521102428 0.1824608147 0.0000000000
0.7803651690 -3.7361645699 0.1574755907 0.0000000000
1.2107330561 -3.7159621716 0.1783031672 0.0000000000
0.8019003272 -3.6958472729 0.1593580395 0.0000000000
0.9407259822 -3.6531014442 0.1859072000 0.0000000000
0.9797814488 -3.6685729027 0.1943506449 0.0000000000
1.0252860785 -3.6640989780 0.1950418204 0.0000000000
1.0569136143 -3.6820969582 0.1802447885 0.0000000000
1.1892534494 -3.6508665085 0.1513246894 0.0000000000
0.7989324927 -3.6275026798 0.1765921116 0.0000000000
0.8396825194 -3.6247916222 0.1746924371 0.0000000000
0.8863669038 -3.6041436195 0.1818013340 0.0000000000
0.9850825071 -3.6195256710 0.1658025384 0.0000000000
-1.9701185226 -3.5557451248 0.1548336744 0.0000000000
1.2846076488 -3.5541524887 0.1792501956 0.0000000000
1.2483752966 -3.5220191479 0.1626238376 0.0000000000
1.2907063961 -3.5020525455 0.1531785280 0.0000000000
1.1705410480 -3.4545593262 0.1767783016 0.0000000000
1.2117202282 -3.4917330742 0.1963899434 0.0000000000
-0.8546358347 -3.4315547943 0.1642170548 0.0000000000
-0.8211960196 -3.4376111031 0.1924372017 0.0000000000
1.1158391237 -3.4172229767 0.1733539253 0.0000000000
-0.8644610643 -3.3919978142 0.1887950003 0.0000000000
1.0355334282 -3.3791399002 0.1885150373 0.0000000000
1.0655410290 -3.3686738014 0.1792730838 0.0000000000
-0.7532227039 -3.3004570007 0.1769612581 0.0000000000
0.9352100492 -3.3292105198 0.1773619652 0.0000000000
0.9799582958 -3.3211927414 0.1757162958 0.0000000000
1.0005162954 -3.3379681110 0.1953876913 0.0000000000
-0.3016486764 -3.2608363628 0.1618497074 0.0000000000
0.8612248302 -3.2835042477 0.1798156351 0.0000000000
0.9034076333 -3.2901685238 0.1731176972 0.0000000000
-0.7159868479 -3.2054545879 0.1586254388 0.0000000000
-0.6749981046 -3.2088499069 0.1666942686 0.0000000000
-0.6291438937 -3.2082200050 0.1712194681 0.0000000000
-0.5845650434 -3.2140173912 0.1760351360 0.0000000000
-0.4810366035 -3.2021145821 0.1854761690 0.0000000000
-0.4293867350 -3.2076606750 0.1741722524 0.0000000000
-0.3793042898 -3.2390069962 0.1736140847 0.0000000000
-0.3373268843 -3.2306108475 0.1603939682 0.0000000000
-1.8673357964 -3.1791906357 0.1934304982 0.0000000000
-1.8489545584 -3.1644759178 0.1526489556 0.0000000000
-1.0413877964 -3.1590676308 0.1910104156 0.0000000000
-0.9960874319 -3.1776428223 0.1894913316 0.0000000000
-0.5362905860 -3.1949286461 0.1795073152 0.0000000000
2.8456113338 -3.1516489983 0.1797944158 0.0000000000
-1.8591351509 -3.1373074055 0.1720443368 0.0000000000
-1.0744138956 -3.1296274662 0.1889099777 0.0000000000
-1.0178788900 -3.1361992359 0.1837616265 0.0000000000
-0.9797502756 -3.1276836395 0.1756100655 0.0000000000
2.8681926727 -3.1291100979 0.1812736541 0.0000000000
-1.8384194374 -3.0611844063 0.1881532967 0.0000000000
-1.0908077955 -3.0776968002 0.1825987101 0.0000000000
2.8220427036 -3.0351359844 0.1781202108 0.0000000000
2.9229962826 -3.0036821365 0.1847978830 0.0000000000
2.9923887253 -3.0051453114 0.1894094348 0.0000000000
-0.8761754632 -2.9730939865 0.1516049504 0.0000000000
-0.8765511513 -2.9303331375 0.1691133082 0.0000000000
2.9899315834 -2.9368715286 0.1891826838 0.0000000000
3.0601322651 -2.9375283718 0.1938471347 0.0000000000
-0.8787495494 -2.8982539177 0.1764049232 0.0000000000
3.0425202847 -2.8150680065 0.1925632209 0.0000000000
1.0254709721 -2.7889935970 0.1720539778 0.0000000000
1.0768914223 -2.7901079655 0.1540395170 0.0000000000
1.1193436384 -2.7829985619 0.1783601642 0.0000000000
3.0284004211 -2.7612655163 0.1915750355 0.0000000000
-0.7334567308 -2.7383284569 0.1764655113 0.0000000000
1.1272386312 -2.7150835991 0.1567279547 0.0000000000
3.0610842705 -2.7286424637 0.1937160641 0.0000000000
-0.7687337399 -2.6710216999 0.1783963740 0.0000000000
-0.7405022979 -2.6838517189 0.1897304058 0.0000000000
3.0937676430 -2.6960191727 0.1958571225 0.0000000000
-0.9686125517 -2.6065640450 0.1715557575 0.0000000000
2.1910324097 -2.6026861668 0.1867026240 0.0000000000
3.0434772968 -2.6146657467 0.1924403161 0.0000000000
-1.0116643906 -2.5896902084 0.1776081920 0.0000000000
-0.9384724498 -2.5889785290 0.1617836952 0.0000000000
2.2485437393 -2.5905604362 0.1909998059 0.0000000000
2.2667133808 -2.5724251270 0.1921900362 0.0000000000
2.2630200386 -2.5308318138 0.1914184242 0.0000000000
1.7712616920 -2.3716006279 0.1800968349 0.0000000000
1.7782795429 -2.3468108177 0.1518511921 0.0000000000
1.8088827133 -2.3167276382 0.1702493727 0.0000000000
1.8280838728 -2.2807321548 0.1765901744 0.0000000000
0.8140298128 -1.9031946659 0.1863566190 0.0000000000
0.7937029004 -1.8574507236 0.1675173491 0.0000000000
0.8061018586 -1.8544405699 0.1827371567 0.0000000000
0.8233488202 -1.8441116810 0.1772720069 0.0000000000
0.8265566826 -1.7270648479 0.1782256663 0.0000000000
0.8469216228 -1.6954530478 0.1556463689 0.0000000000
0.8850030899 -1.6736272573 0.1516601592 0.0000000000
0.9299154878 -1.6594039202 0.1535125673 0.0000000000
0.9811195731 -1.6614753008 0.1690658182 0.0000000000
1.0382705927 -1.6669138670 0.1606536359 0.0000000000
1.0694980621 -1.6566817760 0.1778007150 0.0000000000
1.1014188528 -1.6379011869 0.1529684961 0.0000000000
1.6912382841 -1.0254707336 0.1510612667 0.0000000000
1.6199216843 -0.9600206614 0.1775464118 0.0000000000
1.6804457903 -0.9636754394 0.1518727541 0.0000000000
1.5640455484 -0.9105913043 0.1714568585 0.0000000000
1.6670734882 -0.9123820066 0.1535431892 0.0000000000
1.5804200172 -0.8894695044 0.1732407212 0.0000000000
1.6294698715 -0.8808870912 0.1811326891 0.0000000000
1.6589552164 -0.8682687879 0.1737265587 0.0000000000
1.7292940617 -0.8640771508 0.1579176486 0.0000000000
1.7393810749 -0.7585382462 0.1812051535 0.0000000000
1.8288769722 -0.7561872005 0.1642388999 0.0000000000
1.7406665087 -0.7496542931 0.1576287746 0.0000000000
1.7616664171 -0.7447277308 0.1729301661 0.0000000000
1.8401381969 -0.7262244821 0.1674340516 0.0000000000
1.8544455767 -0.7009437680 0.1652691215 0.0000000000
2.5316662788 -0.7418474555 0.1520245671 0.0000000000
2.5886659622 -0.7279449701 0.1653059721 0.0000000000
1.8445236683 -0.6855579019 0.1706789285 0.0000000000
2.5886647701 -0.6786314249 0.1554390937 0.0000000000
2.6086647511 -0.6835260391 0.1566393822 0.0000000000
3.4396641254 -0.6641195416 0.1802835166 0.0000000000
1.2163852453 -0.6147048473 0.1745602638 0.0000000000
1.2508044243 -0.6073166132 0.1618965864 0.0000000000
2.5696635246 -0.6348196268 0.1542956084 0.0000000000
3.4396631718 -0.6248052716 0.1802802980 0.0000000000
3.4746632576 -0.6174682975 0.1556366533 0.0000000000
1.2332735062 -0.5886169076 0.1732928455 0.0000000000
1.2658110857 -0.5753587484 0.1631554067 0.0000000000
3.4396622181 -0.5854920745 0.1671723127 0.0000000000
3.4746618271 -0.5645138025 0.1821085215 0.0000000000
3.4396605492 -0.5287051201 0.1627994329 0.0000000000
3.4396600723 -0.4937597513 0.1540600955 0.0000000000
3.4746596813 -0.4806732237 0.1732762605 0.0000000000
3.4746584892 -0.4321338832 0.1688596010 0.0000000000
3.7376582623 -0.4187131524 0.1673912853 0.0000000000
3.7786586285 -0.4228096604 0.1980190277 0.0000000000
3.6976573467 -0.3865391016 0.1655984223 0.0000000000
3.7376577854 -0.3902308345 0.1958689690 0.0000000000
3.3246555328 -0.3014218807 0.1868364513 0.0000000000
3.4056560993 -0.3336195946 0.1784757525 0.0000000000
3.2456545830 -0.2705974877 0.1948219836 0.0000000000
3.1711537838 -0.2292297035 0.1903490424 0.0000000000
1.7586519718 -0.1672555506 0.1592096686 0.0000000000
2.9926517010 -0.1618002504 0.1796345413 0.0000000000
3.0456526279 -0.1870758384 0.1828163266 0.0000000000
1.7316507101 -0.1258135736 0.1567635685 0.0000000000
2.9416508675 -0.1149780378 0.1989862472 0.0000000000
2.9666509628 -0.1268772483 0.1780718565 0.0000000000
1.7316497564 -0.0796040446 0.1567597836 0.0000000000
2.7986493111 -0.0689279512 0.1679880917 0.0000000000
2.8216495514 -0.0691226423 0.1908688992 0.0000000000
2.8686504364 -0.0913831368 0.1940485686 0.0000000000
2.7986490726 -0.0476004928 0.1893120408 0.0000000000
1.6936477423 0.0050506997 0.1855664253 0.0000000000
1.6406464577 0.0534940436 0.1610189825 0.0000000000
1.6919789314 0.0824057907 0.1531578898 0.0000000000
1.6828945875 0.1265398711 0.1523325145 0.0000000000
2.4596440792 0.1401406080 0.1663757712 0.0000000000
1.6766432524 0.1770522892 0.1517629474 0.0000000000
2.3271429539 0.1921751648 0.1574127674 0.0000000000
2.3756434917 0.1700245291 0.1697452515 0.0000000000
2.4426438808 0.1574743688 0.1652249247 0.0000000000
2.2221419811 0.2322764546 0.1587215066 0.0000000000
2.2763087749 0.2187918425 0.1654859632 0.0000000000
2.1266405582 0.2879719436 0.1654890925 0.0000000000
2.1731412411 0.2592594028 0.1635548025 0.0000000000
2.0783891678 0.3410636485 0.1643512994 0.0000000000
2.1093063354 0.3199976385 0.1747881472 0.0000000000
2.0146379471 0.3944597542 0.1631108671 0.0000000000
2.0664958954 0.3691956997 0.1713508964 0.0000000000
2.1136381626 0.3879149854 0.1912813187 0.0000000000
1.8826369047 0.4410336018 0.1632049680 0.0000000000
1.9178036451 0.4330120385 0.1735605150 0.0000000000
1.9744708538 0.4170271754 0.1786732227 0.0000000000
2.0146377087 0.4136987925 0.1976750195 0.0000000000
2.1006379128 0.4012602866 0.1901041120 0.0000000000
1.7251354456 0.4956560731 0.1660561562 0.0000000000
1.7714929581 0.4836255014 0.1719049662 0.0000000000
1.8256361485 0.4662484229 0.1756308675 0.0000000000
1.8646366596 0.4534219503 0.1801194847 0.0000000000
1.5386340618 0.5456869006 0.1509736180 0.0000000000
1.5812343359 0.5439252853 0.1672148407 0.0000000000
1.6202344894 0.5337504148 0.1762800366 0.0000000000
1.6745349169 0.5148615837 0.1706737429 0.0000000000
1.7320103645 0.5027070642 0.1914432943 0.0000000000
1.4851717949 0.5778251886 0.1753509939 0.0000000000
1.5249669552 0.5617305040 0.1767657250 0.0000000000
1.5610340834 0.5554762483 0.1864713579 0.0000000000
1.6026341915 0.5519624949 0.1938908398 0.0000000000
1.4896317720 0.6461070776 0.1688790470 0.0000000000
1.5319175720 0.6397932172 0.1778452843 0.0000000000
1.5596320629 0.6310324073 0.1649122387 0.0000000000
1.3369164467 0.6873039603 0.1617479622 0.0000000000
1.3771526814 0.6800109148 0.1779824346 0.0000000000
1.4317220449 0.6648284197 0.1722029448 0.0000000000
1.4669951200 0.6568909883 0.1764350832 0.0000000000
1.5056315660 0.6535304189 0.1936249882 0.0000000000
1.3416304588 0.7001583576 0.1878735423 0.0000000000
-2.9267308712 -4.5002565384 0.2331367135 0.0000000000
-2.8821024895 -4.5064601898 0.2437231541 0.0000000000
-2.8481385708 -4.5108776093 0.2473921776 0.0000000000
-2.2609302998 -4.4074158669 0.2078436017 0.0000000000
-2.9125871658 -4.3866081238 0.2439910769 0.0000000000
-2.8794870377 -4.3909125328 0.2475667596 0.0000000000
-2.2539989948 -4.3557028770 0.2362535596 0.0000000000
-2.2217257023 -4.3598999977 0.2397398949 0.0000000000
-2.0746250153 -4.3778915405 0.2391947806 0.0000000000
-2.9287967682 -4.3259434700 0.2133615017 0.0000000000
-2.2957832813 -4.3495082855 0.2207825780 0.0000000000
-2.1636912823 -4.3135418892 0.2404897809 0.0000000000
-2.1375153065 -4.3139433861 0.2000294626 0.0000000000
-2.0999407768 -4.3218331337 0.2473764420 0.0000000000
-2.3230679035 -4.2928142548 0.2232730985 0.0000000000
-2.9192256927 -4.2192225456 0.2156886160 0.0000000000
-2.9964911938 -4.1578106880 0.2093669772 0.0000000000
-2.9492526054 -4.1639547348 0.2144700289 0.0000000000
-3.0277988911 -4.1050300598 0.2317060828 0.0000000000
-2.9930760860 -4.1073470116 0.2037638426 0.0000000000
-2.9760234356 -4.0607619286 0.2154126167 0.0000000000
0.7416381836 -3.8419396877 0.2463822514 0.0000000000
0.7788690925 -3.8277554512 0.2236129045 0.0000000000
1.2318772078 -3.7849895954 0.2188601792 0.0000000000
1.2567360401 -3.7882225513 0.2215455770 0.0000000000
0.7745842338 -3.7389376163 0.2076529711 0.0000000000
1.0944659710 -3.7356367111 0.2160370052 0.0000000000
1.1746242046 -3.7303872108 0.2243865877 0.0000000000
0.7947670221 -3.6992685795 0.2212737054 0.0000000000
0.9199521542 -3.6532452106 0.2246759832 0.0000000000
1.0342438221 -3.6892039776 0.2499552071 0.0000000000
1.0766113997 -3.6935706139 0.2380503416 0.0000000000
0.7952033281 -3.6063828468 0.2062700838 0.0000000000
0.8152816296 -3.6254472733 0.2272518277 0.0000000000
0.8731357455 -3.6176462173 0.2309408784 0.0000000000
0.9121023417 -3.6232774258 0.2432762980 0.0000000000
0.9777775407 -3.6306917667 0.2341187745 0.0000000000
1.0851926804 -3.6424067020 0.2132180780 0.0000000000
1.1091275215 -3.6455194950 0.2158036232 0.0000000000
-1.9761700630 -3.5586473942 0.2073590159 0.0000000000
1.2968833447 -3.5893409252 0.2070525736 0.0000000000
1.2473554611 -3.5246493816 0.2195844799 0.0000000000
1.1251378059 -3.4507069588 0.2356779575 0.0000000000
1.1650937796 -3.4528443813 0.2236004025 0.0000000000
1.2107893229 -3.4940736294 0.2462616414 0.0000000000
-0.9099563956 -3.4286282063 0.2197603881 0.0000000000
-0.8678987622 -3.4044625759 0.2338277400 0.0000000000
-0.8188987970 -3.4257941246 0.2363905162 0.0000000000
1.1287332773 -3.4262452126 0.2230951041 0.0000000000
0.9833961129 -3.3563568592 0.2402676195 0.0000000000
1.0348789692 -3.3807861805 0.2235902995 0.0000000000
1.0644452572 -3.3714299202 0.2379982173 0.0000000000
0.9224247932 -3.3255486488 0.2210027874 0.0000000000
0.9776938558 -3.3248500824 0.2249736190 0.0000000000
1.0387912989 -3.3261203766 0.2295462638 0.0000000000
-0.3059475720 -3.2502536774 0.2061328143 0.0000000000
0.8585734963 -3.2801494598 0.2342085391 0.0000000000
-1.8705732822 -3.2101664543 0.2380558848 0.0000000000
-0.6801813245 -3.2055201530 0.2224623561 0.0000000000
-0.6356024742 -3.2113175392 0.2272780091 0.0000000000
-0.5959501266 -3.2160811424 0.2258857787 0.0000000000
-0.4874407053 -3.2051856518 0.2410622835 0.0000000000
-0.4321867824 -3.2123720646 0.2470311671 0.0000000000
-0.3853009641 -3.2288212776 0.2193439603 0.0000000000
-0.3393816352 -3.2459051609 0.2025211006 0.0000000000
-0.2821222544 -3.2279846668 0.2069639266 0.0000000000
-1.1145640612 -3.1661925316 0.2337474972 0.0000000000
-0.7220144272 -3.1997644901 0.2134027779 0.0000000000
-0.5771279931 -3.1943027973 0.2426294386 0.0000000000
-0.5401873589 -3.1813881397 0.2338200361 0.0000000000
-1.0643719435 -3.1213374138 0.2336198688 0.0000000000
-1.0333237648 -3.1317353249 0.2376724482 0.0000000000
-0.9983596206 -3.1299293041 0.2408464551 0.0000000000
2.7773814201 -3.1499176025 0.2068155408 0.0000000000
2.8108491898 -3.1165122986 0.2090079337 0.0000000000
2.8331608772 -3.0942420959 0.2104695141 0.0000000000
2.7875688076 -3.0033893585 0.2374337018 0.0000000000
2.8266825676 -3.0318269730 0.2251989096 0.0000000000
2.9147751331 -3.0130779743 0.2263346165 0.0000000000
2.8649756908 -2.9940459728 0.2432989627 0.0000000000
2.9519610405 -2.9759607315 0.2287705988 0.0000000000
3.0253679752 -2.9735829830 0.2394758910 0.0000000000
-0.8679929376 -2.9231483936 0.2105479389 0.0000000000
3.0595369339 -2.9390254021 0.2257455140 0.0000000000
-1.0295778513 -2.8843495846 0.2424435616 0.0000000000
-0.8886086345 -2.8988754749 0.2027839124 0.0000000000
-0.9822795391 -2.8385758400 0.2414615154 0.0000000000
3.0198917389 -2.8385369778 0.2222640067 0.0000000000
1.0741786957 -2.7827601433 0.2234611511 0.0000000000
1.1133804321 -2.7603800297 0.2180502266 0.0000000000
3.0169310570 -2.7735841274 0.2216411680 0.0000000000
3.0605099201 -2.7300870419 0.2244958729 0.0000000000
-0.9708373547 -2.6591193676 0.2401407659 0.0000000000
-0.7692078948 -2.6638419628 0.2407082021 0.0000000000
-0.7434552312 -2.6919677258 0.2464181781 0.0000000000
2.1365664005 -2.6577694416 0.2085886896 0.0000000000
2.1966197491 -2.6901817322 0.2270683199 0.0000000000
2.2149667740 -2.6718688011 0.2282701880 0.0000000000
3.0677938461 -2.6563236713 0.2245531082 0.0000000000
-1.0050069094 -2.6014440060 0.2115350664 0.0000000000
-0.9715611339 -2.6077978611 0.2130977958 0.0000000000
2.1905574799 -2.6038789749 0.2121255100 0.0000000000
2.2112469673 -2.6292405128 0.2399519831 0.0000000000
2.2720191479 -2.6393508911 0.2455225736 0.0000000000
-1.0189926624 -2.5715398788 0.2127808332 0.0000000000
1.8468670845 -2.5689871311 0.2299574316 0.0000000000
2.2283096313 -2.5888402462 0.2149852812 0.0000000000
2.2445487976 -2.5499889851 0.2156623155 0.0000000000
1.7676254511 -2.4275615215 0.2297304422 0.0000000000
1.7751860619 -2.3789558411 0.2359919995 0.0000000000
1.8100945950 -2.3231904507 0.2415855676 0.0000000000
1.8268787861 -2.2797136307 0.2417669296 0.0000000000
0.8558982611 -1.8583586216 0.2252157182 0.0000000000
0.8834573030 -1.8363380432 0.2236558646 0.0000000000
0.8899912834 -1.7784690857 0.2265008837 0.0000000000
0.9032664299 -1.7686769962 0.2107261270 0.0000000000
0.8772143722 -1.7314635515 0.2494089454 0.0000000000
0.9099757671 -1.7147734165 0.2258117199 0.0000000000
0.8982775807 -1.6947908401 0.2038493007 0.0000000000
0.9269181490 -1.6780073643 0.2067126483 0.0000000000
0.9748053551 -1.6840479374 0.2261022031 0.0000000000
1.0177555084 -1.6823242903 0.2302512974 0.0000000000
1.2973388433 -1.0247801542 0.2448016554 0.0000000000
1.6842623949 -1.0246188641 0.2184610367 0.0000000000
1.6104220152 -0.9546517730 0.2256198376 0.0000000000
1.6814439297 -0.9704598188 0.2019881904 0.0000000000
1.5673710108 -0.9124365449 0.2255901843 0.0000000000
1.6722418070 -0.9175903201 0.2016228884 0.0000000000
0.9118809700 -0.8616338968 0.2276295424 0.0000000000
0.9765498638 -0.8656740785 0.2063516676 0.0000000000
1.5815869570 -0.8900975585 0.2216059864 0.0000000000
1.6334391832 -0.8765797019 0.2283393890 0.0000000000
1.6578123569 -0.8604925871 0.2187196761 0.0000000000
1.7090610266 -0.8784494400 0.2039212137 0.0000000000
0.9266628027 -0.8323405981 0.2288328111 0.0000000000
0.9769662619 -0.8188273907 0.2098156810 0.0000000000
1.7367800474 -0.8452067375 0.2055175602 0.0000000000
0.9803829193 -0.7969849706 0.2388046235 0.0000000000
1.7253813744 -0.7622272968 0.2313946486 0.0000000000
1.7564169168 -0.7526387572 0.2225929797 0.0000000000
1.8272483349 -0.7549052238 0.2113752961 0.0000000000
1.7616667747 -0.7447237372 0.2221390456 0.0000000000
1.8298071623 -0.7396060228 0.2110282630 0.0000000000
1.1388077736 -0.6672376990 0.2432642430 0.0000000000
1.1526643038 -0.6522186995 0.2361955941 0.0000000000
1.1416643858 -0.6464251876 0.2426437587 0.0000000000
1.1583638191 -0.6286548376 0.2417630553 0.0000000000
1.2286748886 -0.6120906472 0.2229449451 0.0000000000
1.2289752960 -0.5899208784 0.2254550308 0.0000000000
1.2626979351 -0.5785312653 0.2130105197 0.0000000000
3.4746623039 -0.5777497292 0.2085857838 0.0000000000
3.5096619129 -0.5563724637 0.2106838524 0.0000000000
1.0561151505 -0.5056717992 0.2433079332 0.0000000000
3.4746611118 -0.5247973204 0.2085814476 0.0000000000
1.0740884542 -0.4635238051 0.2422755808 0.0000000000
3.4746603966 -0.4983211458 0.2085792869 0.0000000000
3.5096600056 -0.4761439264 0.2106772959 0.0000000000
3.6586596966 -0.4665670693 0.2196156681 0.0000000000
1.0679448843 -0.4343077540 0.2425865382 0.0000000000
3.6976590157 -0.4428849816 0.2219535112 0.0000000000
3.8206586838 -0.4270060062 0.2293315083 0.0000000000
3.7786579132 -0.3940149248 0.2268090546 0.0000000000
3.9066576958 -0.3760682642 0.2344868481 0.0000000000
3.3086557388 -0.3001839519 0.2364211977 0.0000000000
3.2766551971 -0.2727487385 0.2341334373 0.0000000000
3.1006534100 -0.2132636607 0.2333714664 0.0000000000
3.1566534042 -0.2163038850 0.2135314196 0.0000000000
3.2306542397 -0.2449349016 0.2309028357 0.0000000000
2.9926519394 -0.1617983878 0.2024383545 0.0000000000
3.0726523399 -0.1766254753 0.2195553035 0.0000000000
3.1006529331 -0.1896370053 0.2333695441 0.0000000000
2.9666514397 -0.1381782591 0.2006784976 0.0000000000
1.6566482782 -0.0086651193 0.2130925208 0.0000000000
1.6828981638 0.0047361045 0.2229043841 0.0000000000
2.2713091373 0.2297054678 0.2401743084 0.0000000000
2.3266432285 0.2010552585 0.2460258752 0.0000000000
2.1396405697 0.2954137325 0.2262506336 0.0000000000
2.1709747314 0.2782476246 0.2350156605 0.0000000000
2.2076418400 0.2557626665 0.2334420532 0.0000000000
2.1217648983 0.3268585503 0.2223823518 0.0000000000
2.1526403427 0.3138869405 0.2440271378 0.0000000000
2.1266386509 0.3697862625 0.2226118445 0.0000000000
2.1596381664 0.3973388970 0.2366117388 0.0000000000
1.9338369370 0.4453531802 0.2163022161 0.0000000000
1.9778375626 0.4293965399 0.2212061286 0.0000000000
2.0186376572 0.4119765162 0.2235938311 0.0000000000
2.1396377087 0.4095458090 0.2099365443 0.0000000000
2.1666376591 0.4152822196 0.2290949821 0.0000000000
1.7856358290 0.4930874407 0.2183082551 0.0000000000
1.8259220123 0.4840118289 0.2288302034 0.0000000000
1.8727793694 0.4669711888 0.2265706807 0.0000000000
1.9213036299 0.4558562338 0.2421927303 0.0000000000
1.5956343412 0.5493565202 0.2052044123 0.0000000000
1.6279677153 0.5427501202 0.2217771560 0.0000000000
1.6746346951 0.5302108526 0.2192003727 0.0000000000
1.7216352224 0.5196946263 0.2257388085 0.0000000000
1.7568354607 0.5076180696 0.2286130041 0.0000000000
1.4783258438 0.5888192058 0.2230097055 0.0000000000
1.5246336460 0.5767113566 0.2256380022 0.0000000000
1.5711340904 0.5628941655 0.2271726876 0.0000000000
1.6178843975 0.5545326471 0.2358645648 0.0000000000
1.4821330309 0.6087476611 0.2301045060 0.0000000000
1.5357750654 0.6424018145 0.2225690037 0.0000000000
1.3356306553 0.6968279481 0.2023024261 0.0000000000
1.3776865005 0.6873798370 0.2232597470 0.0000000000
1.4303812981 0.6771253347 0.2268227935 0.0000000000
1.4794888496 0.6630702615 0.2257085592 0.0000000000
1.5174889565 0.6540379524 0.2249039263 0.0000000000
1.3449640274 0.7020121813 0.2242283076 0.0000000000
1.3598805666 0.7025074959 0.2396406233 0.0000000000
-2.8880071640 -4.5092921257 0.2949749827 0.0000000000
-2.8857851028 -4.4504990578 0.2878437638 0.0000000000
-2.9183418751 -4.3893680573 0.2939391732 0.0000000000
-2.2757465839 -4.3562951088 0.2832115293 0.0000000000
-2.2111997604 -4.3646893501 0.2901843190 0.0000000000
-2.0802359581 -4.3805823326 0.2878958285 0.0000000000
-2.9114296436 -4.3308968544 0.2540697455 0.0000000000
-2.1532955170 -4.3182725906 0.2903118730 0.0000000000
-2.1036355495 -4.3236055374 0.2794434130 0.0000000000
-2.9591000080 -4.2708420753 0.2586995363 0.0000000000
-2.9106898308 -4.2771377563 0.2639289498 0.0000000000
-2.3623321056 -4.2922134399 0.2839636207 0.0000000000
-2.3126718998 -4.2975449562 0.2730951905 0.0000000000
-2.1092357635 -4.2698659897 0.2570993900 0.0000000000
-2.9488711357 -4.1669716835 0.2572788596 0.0000000000
-2.9673690796 -4.1139888763 0.2540804744 0.0000000000
-2.9380562305 -4.1189002991 0.2730937004 0.0000000000
-3.0003075600 -4.0630359650 0.2910850048 0.0000000000
-2.9813694954 -4.0633258820 0.2618125677 0.0000000000
-2.9388108253 -4.0710339546 0.2977281213 0.0000000000
0.7215173244 -3.8542900085 0.2949716747 0.0000000000
1.1223582029 -3.7768943310 0.2956470847 0.0000000000
1.1778382063 -3.7805964947 0.2510015965 0.0000000000
1.2225127220 -3.7977848053 0.2645620108 0.0000000000
1.2509734631 -3.7909867764 0.2715617120 0.0000000000
0.7824228406 -3.7227582932 0.2711273134 0.0000000000
1.1206541061 -3.7263960838 0.2621996105 0.0000000000
1.1658054590 -3.7385132313 0.2818861008 0.0000000000
0.8036087751 -3.6733527184 0.2833472192 0.0000000000
0.9430050254 -3.6593732834 0.2722805142 0.0000000000
0.9685652852 -3.6618440151 0.2627378106 0.0000000000
1.0154850483 -3.6688001156 0.2801101804 0.0000000000
0.7980450392 -3.6405203342 0.2566211820 0.0000000000
0.8276963830 -3.6151192188 0.2747886479 0.0000000000
0.8697997928 -3.6129660606 0.2749072313 0.0000000000
0.9154570103 -3.6265327930 0.2842690349 0.0000000000
0.9713044763 -3.6337964535 0.2903019190 0.0000000000
0.8052613735 -3.5817008018 0.2548682392 0.0000000000
1.2826917171 -3.5589706898 0.2819154859 0.0000000000
-1.9411549568 -3.5139191151 0.2577117682 0.0000000000
1.2465286255 -3.5267288685 0.2638918161 0.0000000000
1.3101855516 -3.5311653614 0.2708677351 0.0000000000
1.1242330074 -3.4529824257 0.2841647565 0.0000000000
-1.8966958523 -3.4062061310 0.2860050201 0.0000000000
-0.8734470606 -3.4071238041 0.2819847763 0.0000000000
-0.8255777955 -3.4133496284 0.2871558666 0.0000000000
1.1325039864 -3.4305784702 0.2679226696 0.0000000000
1.1698783636 -3.4495689869 0.2770005465 0.0000000000
-0.9033690095 -3.3745667934 0.2876996994 0.0000000000
1.0050644875 -3.3613131046 0.2814165950 0.0000000000
1.0660430193 -3.3810825348 0.2856829464 0.0000000000
-1.8220781088 -3.3210983276 0.2811785936 0.0000000000
-1.7993180752 -3.3249120712 0.2959411740 0.0000000000
-0.8864428401 -3.3181350231 0.2595401704 0.0000000000
0.9794948101 -3.3181490898 0.2684607208 0.0000000000
-1.8840031624 -3.2520575523 0.2542353868 0.0000000000
-1.7807049751 -3.2950489521 0.2693017721 0.0000000000
-0.3124061823 -3.2533514500 0.2621912658 0.0000000000
0.8324289918 -3.2624540329 0.2845691144 0.0000000000
0.8681495190 -3.2672767639 0.2776848078 0.0000000000
0.9149248600 -3.2929916382 0.2634124458 0.0000000000
-1.9007612467 -3.2103779316 0.2944356799 0.0000000000
-0.7349103689 -3.2124423981 0.2675388753 0.0000000000
-0.6866399050 -3.2086179256 0.2785207629 0.0000000000
-0.6420611143 -3.2144155502 0.2833364010 0.0000000000
-0.5974823236 -3.2202131748 0.2881520391 0.0000000000
-0.5490989089 -3.2010719776 0.2906796038 0.0000000000
-0.4938449264 -3.2082576752 0.2966484129 0.0000000000
-0.3766595423 -3.2292149067 0.2704055011 0.0000000000
-0.3436113000 -3.2492928505 0.2588203251 0.0000000000
-0.2872455716 -3.2304418087 0.2514328063 0.0000000000
-1.8667302132 -3.1988737583 0.2722834647 0.0000000000
-1.8419233561 -3.1751787663 0.2944898009 0.0000000000
2.8096725941 -3.1194703579 0.2720437348 0.0000000000
-0.9667043686 -3.0976767540 0.2513456345 0.0000000000
-0.9271959662 -3.0783922672 0.2529305816 0.0000000000
2.8092751503 -3.0505247116 0.2708332539 0.0000000000
2.7864203453 -3.0062789917 0.2989932895 0.0000000000
2.8423464298 -3.0175144672 0.2729997039 0.0000000000
2.8754186630 -2.9845046997 0.2751661539 0.0000000000
2.9084904194 -2.9514944553 0.2773326039 0.0000000000
2.9658553600 -2.9635794163 0.2822748125 0.0000000000
3.0134816170 -2.9863491058 0.2706346512 0.0000000000
3.0963940620 -2.9753017426 0.2609415352 0.0000000000
-0.9655422568 -2.9140596390 0.2518692911 0.0000000000
-0.8872117996 -2.9354465008 0.2616447806 0.0000000000
3.0583465099 -2.9420197010 0.2895423174 0.0000000000
3.1303765774 -2.9418396950 0.2793305814 0.0000000000
3.1529314518 -2.9197843075 0.2969711125 0.0000000000
-0.9152813554 -2.8885242939 0.2535363138 0.0000000000
-0.7429192066 -2.8514254093 0.2949509621 0.0000000000
3.0780024529 -2.8507490158 0.2580648363 0.0000000000
-0.7537393570 -2.8003230095 0.2907312512 0.0000000000
-0.7052358985 -2.8250732422 0.2852273285 0.0000000000
-0.9807554483 -2.7698853016 0.2530494928 0.0000000000
-0.9323928356 -2.7761750221 0.2582738996 0.0000000000
-0.8682754636 -2.7796750069 0.2645964921 0.0000000000
1.0990439653 -2.7638909817 0.2554309666 0.0000000000
1.1283714771 -2.7769074440 0.2822223306 0.0000000000
3.0631160736 -2.7967166901 0.2718701661 0.0000000000
-0.7570459843 -2.7072339058 0.2939645648 0.0000000000
-0.9186085463 -2.6678707600 0.2740174234 0.0000000000
-0.8830924630 -2.6705470085 0.2753170133 0.0000000000
-0.8164839149 -2.6776745319 0.2737329602 0.0000000000
-0.7764764428 -2.6733613014 0.2876533270 0.0000000000
3.1951124668 -2.6654069424 0.2961084545 0.0000000000
-1.0159336329 -2.6030068398 0.2533646226 0.0000000000
-0.9757772684 -2.6110091209 0.2702745795 0.0000000000
-0.9390127063 -2.6435525417 0.2688523531 0.0000000000
1.8467288017 -2.6094303131 0.2546771765 0.0000000000
-1.0182468891 -2.5870692730 0.2751844823 0.0000000000
1.7963550091 -2.5831522942 0.2952035964 0.0000000000
1.8294411898 -2.5877048969 0.2756400704 0.0000000000
1.7974288464 -2.5063750744 0.2691712976 0.0000000000
1.8214049339 -2.5479338169 0.2732178569 0.0000000000
2.5028390884 -2.4833099842 0.2887708545 0.0000000000
1.7665899992 -2.4301657677 0.2852216363 0.0000000000
2.4832885265 -2.4295833111 0.2985449433 0.0000000000
1.7710357904 -2.3579959869 0.2912672460 0.0000000000
2.4892070293 -2.3996071815 0.2981332242 0.0000000000
1.8091839552 -2.3198776245 0.2923090458 0.0000000000
1.8349415064 -2.2941679955 0.2939963639 0.0000000000
3.5175099373 -2.2748100758 0.2852502465 0.0000000000
3.5610885620 -2.2313127518 0.2881049216 0.0000000000
3.6151838303 -2.2443554401 0.2612600327 0.0000000000
3.5937724113 -2.1986896992 0.2902460396 0.0000000000
0.8384245634 -1.8329833746 0.2751882076 0.0000000000
0.8630204201 -1.7829788923 0.2782843411 0.0000000000
0.8582421541 -1.7486582994 0.2991204858 0.0000000000
0.9182202816 -1.7136996984 0.2772252262 0.0000000000
0.9558174610 -1.6937855482 0.2719874680 0.0000000000
1.3025670052 -1.0152853727 0.2689849138 0.0000000000
1.6670310497 -1.0321356058 0.2977318168 0.0000000000
1.3147404194 -0.9852519035 0.2745025158 0.0000000000
1.3510898352 -0.9622968435 0.2520231009 0.0000000000
